277.648 442.781 646.193 
272.19 446.65 666.235 
268.703 528.232 326.841 
270.367 539.647 457.884 
256.167 539.38 487.824 
266.185 530.819 520.525 
256.364 528.031 589.034 
261.659 529.785 625.084 
270.036 533.623 693.33 
269.193 534.773 299.501 
257.603 527.34 225.902 
253.315 535.786 106.295 
261.306 539.1 55.3834 
261.893 530.267 23.6974 
261.677 604.911 377.328 
269.01 606.244 446.738 
271.981 610.465 466.36 
262.711 595.773 496.556 
257.273 592.203 528.668 
266.779 605.377 566.51 
270.135 607.777 603.006 
265.562 597.602 697.124 
274.511 604.757 345.619 
260.507 599.004 303.684 
272.486 593.468 283.687 
258.095 603.521 252.308 
270.445 596.117 174.928 
260.013 597.831 155.004 
264.36 607.137 115.523 
261.136 600.604 75.829 
260.901 606.547 38.4034 
260.997 688.133 137.187 
274.5 685.374 213.647 
261.656 692.246 246.853 
259.048 686.907 287.938 
271.047 684.513 323.891 
271.85 684.398 562.376 
268.821 680.993 596.989 
305.69 727.869 22.6333 
298.396 729.661 89.4507 
301.059 1.53225 193.439 
300.559 733.226 262.015 
305.14 3.57729 305.405 
292.365 723.028 351.068 
303.789 729.427 421.748 
291.294 5.74542 482.122 
293.16 5.70086 512.6 
303.838 2.66088 545.292 
292.91 723.606 579.985 
298.332 724.821 596.999 
295.703 8.13446 643.395 
292.161 5.65761 673.339 
305.998 732.556 707.929 
294.869 71.7664 321.128 
297.776 66.2395 362.906 
305.334 68.9246 443.319 
295.125 73.921 482.501 
302.784 78.5866 557.605 
291.512 79.703 582.726 
301.068 67.6696 647.502 
300.019 70.5725 711.966 
304.301 70.1787 144.877 
302.108 75.4109 66.7973 
304.47 65.7874 32.7129 
304.69 72.3334 15.9902 
302.088 138.498 231.451 
307.232 148.656 294.682 
311.345 151.037 325.205 
312.343 149.269 420.798 
306.403 146.486 445.639 
308.558 146.393 484.104 
311.88 142.075 547.015 
309.678 148.656 635.795 
298.84 153.118 59.7487 
311.359 146.348 22.0996 
314.885 222.965 292.688 
318.927 218.358 339.848 
308.14 212.858 395.728 
303.642 216.578 436.859 
302.947 219.623 616.153 
312.572 222.754 658.313 
309.145 222.299 690.296 
311.526 212.107 721.405 
310.094 223.662 187.83 
306.482 212.839 154.047 
310.645 227.622 86.9704 
306.653 222.659 48.5154 
308.648 216.932 13.2785 
288.553 292.969 153.645 
289.603 287.884 258.431 
296.982 296.064 291.176 
290.82 293.418 322.762 
303.153 299.921 479.142 
290.694 297.703 503.798 
296.251 298.657 585.772 
301.245 299.748 650.227 
297.929 301.106 690.944 
300.86 285.48 725.056 
291.527 285.426 98.9209 
297.612 292.925 50.4851 
298.198 391.286 403.015 
308.338 382.319 440.178 
303.723 377.564 465.944 
303.166 388.181 545.057 
291.343 379.49 567.969 
293.988 385.757 613.51 
303.016 392.55 654.505 
307.016 392.101 721.364 
302.554 382.208 364.873 
308.7 394.654 333.666 
303.801 385.401 238.693 
305.306 387.971 203.957 
301.061 382.842 122.183 
304.195 382.124 91.4358 
301.913 382.576 64.4837 
300.881 375.435 35.1686 
304.475 460.088 102.349 
306.89 465.764 226.102 
302.536 451.485 263.716 
307.485 457.305 337.177 
300.183 446.47 451.203 
300.504 457.164 481.271 
310.457 452.258 516.696 
311.777 453.387 545.865 
303.028 461.962 632.737 
307.719 458.758 656.184 
308.238 453.147 73.7387 
298.847 459.471 44.6221 
312.68 516.919 291.638 
313.974 530.554 324.26 
302.641 515.34 403.199 
317.409 521.046 491.128 
311.165 534.605 629.041 
314.21 520.32 717.629 
303.766 519.112 230.05 
317.764 528.841 194.036 
305.761 529.403 65.3434 
313.483 531.563 34.8635 
308.722 596.329 503.678 
308.538 596.272 605.703 
294.903 594.104 674.175 
295.987 588.857 468.399 
312.309 603.763 362.072 
298.906 600.834 330.78 
306.244 598.681 154.166 
310.083 597.231 120.441 
297.576 589.412 47.1296 
309.855 684.303 268.981 
312.714 690.99 304.198 
304.027 689.196 388.904 
313.402 689.515 423.357 
315.012 683.128 521.156 
304.009 683.214 554.026 
316.689 696.055 584.479 
307.326 682.252 628.368 
311.082 695.874 184.415 
318.531 687.715 142.911 
315.994 691.953 78.3121 
339.667 731.605 269.391 
337.462 14.1224 293.442 
341.556 4.10407 370.174 
335.636 3.63677 396.538 
338.506 0.737419 434.12 
347.355 11.5405 472.305 
336.348 9.93712 506.491 
347.036 0.00882776 551.08 
339.538 7.90173 627.675 
347.243 7.0918 670.781 
334.589 731.67 231.023 
341.234 13.3971 194.532 
334.405 732.663 170.254 
346.317 4.17974 102.045 
338.134 13.9131 71.5318 
355.839 79.1038 205.443 
358.44 74.6717 277.757 
353.038 79.3045 403.572 
348.966 77.8091 600 
345.912 81.1761 636.337 
358.974 79.4476 719.123 
354.776 63.5834 27.0246 
346.945 156.021 332.831 
346.285 153.808 361.921 
358.577 159.891 423.993 
351.074 164.288 473.068 
359.916 154.592 508.312 
347.487 163.322 550.888 
360.649 156.921 597.528 
359.051 157.061 633.416 
357.862 153.964 302.182 
347.161 150.318 272.645 
353.269 159.753 243.123 
347.667 164.835 51.1751 
342.787 225.657 328.053 
344.018 214.577 354.777 
345.757 211.955 390.172 
349.625 219.308 424.598 
344.755 216.227 463.122 
341.94 224.42 575.024 
344.219 211.865 621.976 
352.492 221.963 727.284 
347.809 214.359 289.334 
346.937 222.51 253.832 
349.82 220.394 223.789 
349.242 221.449 183.542 
350.393 213.895 161.465 
340.586 210.059 127.209 
355.283 222.607 96.6142 
346.196 215.639 74.2939 
353.781 303.959 240.774 
343.046 290.869 270.59 
353.614 293.039 300.152 
340.963 304.518 335.686 
356.048 295.354 371.564 
340.798 302.572 441.876 
357.232 298.555 468.941 
351.519 296.195 610.946 
346.578 298.71 649.03 
344.523 302.884 697.474 
353.367 295.12 184.318 
346.909 296.496 141.477 
345.64 296.798 105.571 
344.98 295.318 70.6261 
354.365 383.752 320.28 
350.824 373.268 354.979 
341.609 377.114 449.664 
343.788 385.141 483.769 
345.106 378.115 556.983 
352.747 380.132 587.585 
344.288 375.139 616.652 
350.005 386.932 717.019 
347.998 369.051 290.392 
346.828 386.836 260.402 
352.679 368.579 207.402 
340.091 383.091 172.664 
355.07 371.333 138.952 
354.626 444.093 484.594 
349.732 447.579 521.157 
355.233 445.95 562.26 
347.471 449.328 590.991 
353.257 444.503 615.79 
348.25 446.21 649.817 
348.106 436.886 416.247 
353.167 448.505 263.468 
348.209 437.568 222.098 
340.852 441.622 186.173 
354.207 451.714 143.096 
349.211 441.93 99.6676 
353.349 444.2 61.3626 
346.878 445.377 23.2636 
348.313 514.64 306.185 
352.907 523.571 342.942 
343.723 513.989 420.565 
341.234 517.347 509.749 
347.752 522.115 536.955 
344.996 517.092 599.121 
348.107 521.634 630.087 
355.755 527.028 667.59 
342.792 513.372 266.661 
341.831 528.263 235.483 
349.008 524.819 201.301 
344.666 518.365 94.4013 
349.867 524.358 58.2521 
352.667 606.227 161.428 
345.509 599.546 193.524 
354.804 591.427 225.813 
340.997 592.227 288.586 
343.045 602.628 307.545 
351.097 605.391 332.666 
352.114 590.472 448.188 
351.949 595.171 493.266 
354.512 592.319 533.678 
341.149 595.271 702.653 
357.003 674.212 35.1537 
350.688 677.866 56.8084 
364.303 678.062 100.616 
348.963 676.72 159.303 
362.08 672.98 196.884 
361.884 675.421 225.631 
348.341 684.752 301.24 
353.533 670.759 340.644 
350.136 672.014 409.138 
357.123 672.787 529.587 
348.629 677.839 561.925 
355.611 680.329 643.61 
357.228 677.474 684.127 
348.24 670.788 708.726 
382.662 1.054 238.925 
384.551 733.226 278.122 
382.218 11.3011 309.859 
390.754 0.654216 355.679 
391.086 729.896 404.533 
382.989 4.51313 434.914 
381.687 8.68924 480.552 
394.377 8.66429 502.977 
391.233 10.1397 530.905 
384.465 733.208 612.062 
391.888 4.09028 679.018 
386.76 729.522 713.294 
384.545 5.80947 155.221 
379.396 9.45503 93.3504 
384.18 4.08794 61.8792 
391.125 2.81627 27.5351 
403.381 72.1687 306.721 
400.178 75.1189 416.143 
392.017 82.1631 492.76 
392.022 78.5563 598.775 
396.247 86.361 645.747 
389.922 86.4289 672.845 
394.57 84.4746 706.059 
392.848 84.8406 729.033 
406.963 78.1225 278.142 
403.744 76.9441 210.443 
400.593 87.8811 110.605 
394.34 83.4628 78.4768 
405.81 72.5287 20.2674 
395.206 152.635 158.226 
385.12 152.774 178.099 
394.684 154.377 223.956 
393.901 152.995 251.399 
381.03 157.278 317.238 
384.111 158.079 387.925 
385.092 150.896 513.906 
391.217 150.132 543.825 
390.561 157.19 574.338 
391.808 152.596 620.059 
392.151 167.047 647.146 
388.546 162.263 676.933 
400.328 162.495 97.3378 
395.712 149.087 66.0691 
391.993 155.496 34.6944 
387.537 219.59 85.5172 
394.729 213.902 123.281 
388.392 220.242 152.16 
385.589 220.763 216.046 
381.332 221.895 249.858 
393.491 226.193 380.048 
381.791 219.861 433.476 
386.648 215.099 476.224 
394.059 212.373 594.962 
392.649 214.482 624.381 
384.09 220.779 709.146 
388.988 226.055 26.9648 
385.013 298.628 482.859 
376.1 307.214 516.334 
378.859 297.412 547.882 
387.233 295.393 588.968 
380.18 296.229 622.762 
388.775 293.82 656.624 
376.666 305.158 732.655 
384.146 291.736 414.844 
380.577 306.987 328.839 
390.192 298.648 241.947 
378.811 305.737 203.295 
384.106 304.76 125.7 
375.785 298.021 99.7036 
388.819 301.373 13.1154 
394.809 376.608 251.766 
392.417 373.545 334.982 
405.002 376.27 363.534 
389.344 369.916 396.84 
399.354 383.344 427.312 
406.588 365.743 458.903 
392.272 374.585 498.35 
400.43 384.219 215.427 
397.657 378.55 119.756 
407.749 372.86 89.6812 
399.537 373.215 47.6195 
407.557 369.961 10.7486 
390.357 460.625 243.969 
387.903 451.551 275.1 
386.763 460.616 309.938 
393.86 449.432 348.038 
382.988 448.372 393.104 
384.381 454.211 422.79 
388.799 457.945 522.564 
390.001 463.344 584.364 
388.864 451.27 701.051 
396.631 448.675 188.037 
388.207 463.421 109.677 
385.049 523.228 306.364 
386.118 519.512 348.072 
399.466 523.004 379.089 
388.268 518.122 412.583 
396.488 527.903 441.124 
388.616 529.585 468.932 
391.34 521.158 501.523 
395.232 526.816 594.375 
389.421 532.697 662.961 
383.722 527.327 170.768 
389.648 536.493 134.7 
382.275 528.571 108.158 
379.749 604.399 211.9 
389.137 593.164 242.613 
378.837 594.718 275.999 
380.933 604.698 320.746 
380.276 588.121 364.336 
378.072 606.305 390.961 
391.642 591.243 461.847 
380.87 601.07 686.755 
382.29 591.03 134.583 
374.518 589.552 33.5211 
396.185 677.986 156.339 
403.868 675.906 185.769 
402.472 667.005 214.566 
397.626 663.34 252.262 
406.083 667.487 360.856 
396.045 674.148 396.57 
403.846 665.908 531.638 
396.563 669.953 618.093 
389.441 663.139 648.81 
398.384 670.602 705.422 
401.683 668.979 80.3069 
426.618 4.33548 57.5172 
419.226 10.0108 164.16 
418.591 9.3164 237.181 
419.377 10.6497 303.392 
426.31 731.83 415.28 
434.74 733.491 441.856 
417.25 3.21533 473.658 
430.814 11.9348 514.388 
424.147 1.01126 539.057 
426.565 10.5266 610.405 
431.053 6.89862 649.623 
423.668 0.0813706 690.439 
430.222 13.133 26.4423 
426.99 81.12 405.508 
425.081 75.5479 435.923 
418.299 88.7013 589.796 
418.065 82.1949 620.879 
431.378 86.5904 650.363 
422.051 89.1533 374.006 
435.375 82.3659 314.507 
428.813 87.6763 224.884 
432.584 78.9046 159.541 
416.945 82.9008 125.373 
432.826 81.4712 91.2747 
423.71 75.6535 48.7254 
434.43 80.5918 17.9665 
427.797 151.588 207.923 
420.3 148.636 312.247 
432.079 143.465 352.267 
427.429 138.509 389.137 
421.143 142.389 422.818 
424.955 144.446 464.007 
428.173 149.374 493.404 
420.359 137.716 535.789 
434.504 150.987 595.433 
434.979 142.191 626.937 
431.483 148.352 127.682 
430.368 149.416 44.8823 
432.341 137.836 15.4022 
433.006 229.379 528.3 
422.195 217.559 566.748 
425.866 214.014 597.323 
425.001 219.667 683.257 
425.533 216.93 431.014 
427.132 225.782 387.021 
431.772 222.545 306.29 
419.81 221.829 279.848 
429.908 216.984 164.847 
425.215 217.973 108.274 
440.276 304.474 461.299 
442.596 300.83 606.727 
432.438 309.4 692.728 
436.671 306.424 424.006 
436.336 300.357 363.249 
433.546 311.271 289.264 
432.101 315.63 257.045 
442.967 307.199 226.419 
433.869 312.67 188.104 
432.488 305.245 122.389 
439.307 315.006 90.3491 
440.267 302.684 25.7176 
447.461 374.614 364.405 
434.723 368.036 430.089 
434.405 373.378 483.744 
437.432 367.122 519.929 
438.522 382.908 616.144 
438.253 372.379 651.742 
445.195 368.959 297.452 
437.285 379.712 217.298 
446.731 374.601 171.479 
439.906 373.465 136.6 
432.44 382.973 69.0569 
422.351 462.22 280.125 
431.313 463.028 330.513 
422.601 462.17 468.217 
425.039 456.674 481.944 
436.653 457.358 576.692 
436.654 450.453 169.826 
425.823 458.092 134.172 
428.4 450.81 53.3659 
432.987 464.757 5.83294 
441.084 541.634 306.221 
433.275 535.689 340.562 
441.667 535.339 403.082 
430.797 538.126 432.692 
427.348 544.427 468.165 
429.974 532.956 502.632 
440.117 533.265 527.067 
434.407 527.696 549.311 
436.902 536.966 586.31 
431.496 540.582 622.397 
432.057 532.578 658.513 
427.664 543.654 728.568 
441.04 532.286 281.246 
428.966 533.582 235.981 
432.048 530.821 201.473 
441.314 535.621 136.383 
429.618 538.912 96.4734 
438.201 531.054 15.6008 
431.75 588.047 494.663 
428.569 593.353 531.566 
433.585 594.914 568.05 
436.972 589.703 631.937 
428.146 599.04 665.851 
423.352 603.534 695.455 
439.564 588.684 733.16 
438.031 601.057 276.546 
433.728 594.031 200.994 
436.933 589.507 132.726 
432.938 592.082 54.7638 
435.838 592.205 15.3963 
430.397 677.824 495.251 
435.109 672.654 530.114 
424.908 679.996 553.099 
426.741 674.99 673.078 
429.421 682.356 464.029 
432.087 688.639 441.95 
427.859 678.741 409.819 
421.747 681.35 347.425 
416.541 683.69 317.454 
417.668 681.471 258.421 
422.298 690.719 224.431 
424.528 693.414 187.272 
434.236 691.638 148.398 
430.287 680.248 127.782 
424.415 689.314 104.533 
429.966 688.335 64.85 
435.315 689.244 28.7462 
468.336 9.61917 68.2642 
471.316 0.543941 106.902 
474.636 2.21873 144.724 
474.506 1.53484 164.398 
475.297 11.4929 188.235 
478.176 12.1914 224.771 
473.936 731.194 262.529 
469.892 12.7603 308.229 
479.915 12.2775 339.571 
468.164 14.3784 370.187 
476.593 14.7626 400.357 
469.951 3.93701 446.9 
470.714 12.3498 479.422 
469.182 5.12209 526.5 
473.589 10.9184 563.699 
469.037 5.81257 590.826 
463.458 11.3316 29.5571 
493.806 74.326 483.117 
484.298 80.8367 630.281 
486.997 67.6779 660.394 
486.766 81.3884 694.28 
478.58 66.7815 381.238 
493.457 76.6176 349.297 
479.073 75.4943 321.925 
482.78 75.1601 239.781 
491.528 66.2171 179.054 
479.536 80.8616 94.1522 
467.421 149.195 409.126 
483.114 152.871 430.958 
482.271 146.276 505.381 
476.678 143.8 644.971 
483.746 143.191 682.986 
474.919 152.879 723.142 
484.988 137.937 266.46 
483.387 146.95 197.494 
470.783 142.949 45.4347 
470.894 144.366 6.66858 
472.696 222.535 389.472 
480.882 223.506 429.928 
483.371 236.344 466.227 
466.339 231.818 532.31 
479.988 225.848 566.112 
467.898 228.906 631.271 
476.105 233.858 279.654 
466.226 230.558 219.103 
471.282 234.36 90.2161 
469.424 223.742 15.1817 
467.899 315.312 81.0498 
475.205 300.925 166.122 
478.118 301.283 227.849 
475.104 303.211 285.463 
465.647 308.064 314.398 
472.234 298.798 414.287 
479.646 301.464 455.544 
479.711 306.6 490.535 
472.153 309.395 524.104 
476.435 297.791 583.406 
477.385 310.217 652.033 
471.269 299.152 45.2222 
472.521 303.051 21.0807 
474.39 380.119 136.836 
477.895 372.813 161.063 
464.809 382.636 381.949 
469.296 370.377 426.328 
467.167 378.105 455.156 
463.649 383.779 497.7 
472.772 372.268 545.79 
463.351 373.468 581.607 
463.885 376.62 641.1 
468.961 372.178 680.874 
474.706 386.281 729.647 
466.365 451.893 79.244 
473.746 449.529 103.729 
472.605 446.76 126.721 
475.584 456.71 160.158 
474.002 450.741 207.15 
475.007 464.589 256.081 
462.624 449.187 298.884 
463.807 463.598 340.976 
469.699 453.528 548.869 
466.223 452.463 583.534 
476.416 451.803 656.9 
460.555 458.372 700.372 
473.614 525.006 364.388 
485.837 526.668 427.906 
489.514 527.513 555.915 
482.664 520.637 597.211 
482.593 532.067 636.601 
483.344 524.687 708.433 
485.982 523.281 295.21 
486.606 521.934 163.717 
487.811 528.193 129.57 
478.227 527.394 106.646 
481.205 528.003 77.5095 
484.096 517.261 3.33528 
483.047 594.918 488.545 
476.791 598.765 519.763 
484.428 595.585 554.97 
490.818 595.088 587.402 
489.27 603.687 654.226 
491.633 609.158 689.653 
480.665 609.251 238.243 
477.954 595.851 185.672 
488.591 608.788 92.1956 
488.152 608.391 21.3654 
471.028 668.56 405.092 
478.689 670.264 435.533 
471.928 679.921 466.181 
481.591 669.356 501.482 
485.243 668.241 532.625 
478.527 681.814 566.705 
467.94 681.61 610.038 
482.234 682.273 696.538 
482.313 664.81 723.369 
473.695 677.372 242.643 
473.527 677.275 214.363 
479.73 680.484 171.186 
482.18 664.181 142.555 
483.44 679.451 120.77 
477.745 669.822 87.3887 
468.771 669.405 33.2078 
483.969 679.373 2.43757 
513.458 10.315 282.39 
518.237 3.56685 640.954 
523.743 732.658 667.942 
512.091 6.39121 712.989 
508.433 9.96162 114.362 
521.025 1.5897 80.2925 
516.805 3.1712 30.4352 
527.954 71.1406 367.808 
535.749 81.4053 403.543 
528.27 66.2214 431.33 
529.532 67.6512 482.419 
531.218 67.7758 521.856 
526.879 68.533 611.383 
534.497 75.2261 653.202 
515.596 76.7077 723.577 
518.537 79.463 313.622 
535.825 63.4298 280.606 
522.26 66.7023 247.521 
529.795 68.5202 146.383 
520.61 70.4422 112.81 
518.01 67.0378 77.5088 
530.214 63.8823 37.5406 
534.613 70.5555 733.348 
516.758 145.234 393.02 
519.721 133.254 475.571 
517.663 145.487 544.998 
514.398 133.171 563.926 
531.107 135.997 650.847 
525.796 137.051 686.297 
519.555 146.824 322.713 
516.34 146.115 286.441 
521.756 149.574 262.08 
519.725 144.925 229.11 
520.96 136.168 187.709 
526.952 148.017 152.327 
515.384 147.068 127.15 
524.005 150.127 80.2892 
529.238 137.312 44.0417 
513.555 232.38 302.972 
515.79 242.209 370.198 
512.364 235.626 429.745 
516.853 236.707 493.973 
518.692 237.895 577.375 
515.016 231.039 609.549 
524.497 242.395 706.022 
514.738 240.064 238.78 
509.942 238.478 165.31 
518.13 237.31 97.2978 
516.081 238.91 64.9948 
535.398 289.568 401.24 
525.738 286.079 436.82 
528.238 291.131 500.22 
532.237 301.378 539.456 
526.878 294.524 579.544 
518.859 295.476 611.668 
523.462 300.331 679.277 
527.525 289.282 715.397 
533.728 295.993 199.369 
524.049 290.386 175.993 
534.129 284.671 131.245 
517.867 295.354 98.5443 
530.961 297.956 81.6244 
520.306 287.943 40.7162 
531.723 286.292 4.64984 
516.139 359.698 205.816 
512.83 356.916 290.541 
524.173 375.611 346.765 
519.994 372.06 383.15 
521.445 368.48 442.621 
513.283 367.84 505.916 
507.303 376.815 606.074 
512.144 373.466 668.589 
526.306 370.947 698.463 
516.557 374.917 169.813 
524.135 366.948 97.1233 
519.721 375.039 59.1814 
517.662 362.488 14.0753 
524.409 445.421 358.905 
515.206 442.281 426.759 
517.861 443.654 471.374 
517.348 443.778 558.128 
521.697 440.836 595.514 
519.1 443.759 669.493 
529.947 442.134 687.338 
530.987 453.962 329.119 
524.394 449.632 292.628 
526.772 443.198 248.288 
516.59 443.296 189.304 
517.389 443.186 153.61 
517.653 440.676 137.112 
517.801 450.905 101.578 
528.386 444.017 41.4275 
513.175 443.556 14.8107 
518.256 537.243 245.258 
512.948 538.512 279.071 
527.013 541.577 388.65 
520.161 532.16 417.571 
523.056 537.318 445.067 
525.748 533.385 545.462 
516.66 540.275 615.725 
512.553 529.631 207.974 
526.313 530.017 182.16 
511.038 530.477 140.182 
524.781 526.771 109.008 
513.987 540.953 74.1684 
530.964 603.392 405.119 
527.651 604.834 433.783 
531.786 593.051 504.489 
522.376 596.922 556.114 
526.222 602.805 605.082 
534.392 594.073 640.125 
534.979 594.48 691.676 
524.028 606.139 372.156 
523.955 591.973 304.098 
529.902 605.839 115.573 
520.66 590.705 82.1392 
525.735 595.491 8.74789 
536.231 674.084 452.514 
524.369 672.587 493.2 
527.536 689.888 593.15 
523.541 678.777 638.382 
535.173 676.047 732.609 
535.519 686.243 302.886 
538.647 672.355 272.071 
528.429 690.014 231.937 
538.987 683.107 200.226 
527.594 684.321 163.687 
536.504 681.279 98.93 
519.746 683.552 4.32152 
549.314 7.98933 365.047 
551.559 2.2042 439.67 
560.944 0.755874 499.106 
551.336 727.995 571.577 
559.737 4.94106 614.4 
559.614 730.383 697.243 
552.577 729.093 297.378 
550.184 2.28962 216.34 
550.425 0.992589 164.826 
550.422 5.85817 133.753 
560.787 1.22138 106.945 
563.542 10.0301 73.4123 
548.404 9.27337 30.1025 
571.837 73.8954 258.269 
570.06 76.3491 323.928 
566.057 80.697 360.312 
557.227 80.6737 392.186 
557.297 84.0265 457.603 
560.722 80.0887 566.722 
567.004 72.8314 603.521 
567.906 73.1694 637.051 
567.476 73.0885 685.005 
566.467 69.5656 216.842 
557.027 72.6935 179.454 
565.264 75.236 130.198 
566.43 83.1664 100.854 
556.384 80.8715 77.4475 
559.133 69.7562 51.5068 
562.987 74.0104 24.5362 
564.851 164.954 508.62 
566.133 154.108 577.355 
579.263 158.032 618.757 
568.07 162.402 658.631 
570.903 161.263 690.475 
567.583 152.99 474.368 
572.987 152.571 450.863 
576.948 157.908 373.953 
581.674 158.936 323.905 
573.567 153.277 279.522 
571.097 146.995 244.654 
576.675 154.832 212.22 
571.871 145.851 71.647 
579.514 163.121 1.54736 
547.727 232.633 485.214 
554.382 230.977 613.73 
563.758 239.783 649.096 
552.057 234.885 684.706 
558.01 236.738 380.076 
559.144 226.912 342.034 
563.002 235.86 303.415 
558.102 234.35 262.852 
551.787 229.902 202.671 
559.914 234.323 73.2248 
565.29 232.89 31.3042 
575.984 293.266 479.465 
576.929 298.659 550.087 
563.527 294.45 654.677 
565.095 296.167 684.061 
565.85 302.652 717.279 
569.421 309.523 440.979 
566.055 305.048 402.16 
566.588 299.173 370.697 
566.115 306.403 337.904 
575.991 304.649 170.841 
572.13 305.282 142.563 
570.903 298.506 123.823 
577.994 296.218 97.4524 
573.377 307.253 53.9217 
551.056 384.988 259.444 
562.765 385.86 287.433 
565.056 373.48 317.155 
553.843 386.451 339.007 
553.371 391.79 379.754 
558.114 374.088 429.354 
566.906 385.531 475.705 
563.711 385.914 516.222 
555.997 389.414 553.461 
568.051 379.06 583.774 
550.028 374.633 649.345 
549.934 374.239 694.165 
558.426 378.594 219.211 
561.101 381.619 40.9948 
551.445 376.449 4.87197 
556.395 445.305 494.977 
564.184 446.334 520.18 
561.052 461.644 638.175 
554.718 448.815 672.463 
565.663 455.314 301.61 
555.28 461.904 234.037 
562.566 458.288 45.2744 
557.619 454.132 11.4248 
560.486 526.364 285.264 
567.861 522.986 329.617 
556.23 522.981 368.644 
564.433 533.1 511.41 
557.464 523.863 593.628 
563.441 529.439 669.056 
558.712 524.815 711.252 
568.904 520.135 170.625 
554.578 535.801 111.133 
551.501 525.97 61.9135 
555.586 535.127 40.2729 
561.334 522.552 11.5766 
570.684 609.635 331.204 
567.252 597.876 363.47 
571.314 595.786 450.807 
556.983 590.12 487.48 
564.606 591.724 506.982 
562.699 598.054 639.14 
571.44 599.242 678.21 
570.552 608.982 713.631 
558.702 605.838 296.897 
564.323 592.055 265.302 
557.611 604.992 236.273 
570.455 603.091 207.785 
557.823 595.242 169.139 
565.774 608.064 139.154 
563.002 594.568 38.4331 
572.485 606.524 733.392 
577.185 683.71 54.2208 
568.553 690.871 82.3306 
564.673 680.389 120.402 
577.458 679.076 142.41 
573.048 687.268 183.69 
566.991 686.035 219.418 
577.333 688.857 250.605 
578.2 678.238 289.319 
578.088 683.925 427.189 
569.548 691.08 453.915 
581.289 681.007 491.843 
581.365 695.657 531.357 
573.378 681.382 549.002 
567.483 685.986 581.569 
578.151 682.42 617.817 
577.439 680.844 691.026 
578.499 680.395 717.133 
603.384 729.638 260.813 
606.863 10.6518 309.851 
610.31 10.5447 373.647 
615.951 727.876 397.735 
611.302 8.09949 519.568 
618.26 5.07831 663.13 
607.375 732.155 698.24 
614.871 3.09981 723.866 
614.66 2.68334 224.353 
615.282 0.123446 67.2563 
605.677 7.38209 30.2192 
603.648 77.8462 365.902 
595.572 81.8157 389.683 
598.277 80.6152 439.489 
600.133 82.591 477.956 
592.942 80.4514 574.32 
599.241 78.6651 637.744 
609.356 89.6576 287.322 
607.657 89.8365 238.721 
602.239 78.5905 174.624 
592.026 79.5102 27.3345 
598.578 82.361 1.02451 
617.887 151.151 32.6531 
609.654 138.632 63.0224 
606.796 136.51 159.696 
604.935 149.281 208.255 
611.418 145.263 338.758 
619.74 147.425 375.105 
607.149 138.023 449.909 
614.98 153.442 512.966 
616.823 150.943 544.009 
608.188 145.595 569.374 
620.422 141.927 587.522 
612.854 148.991 629.462 
614.728 137.377 650.955 
609.611 144.373 685.556 
604.96 213.67 56.5501 
612.697 220.52 109.521 
613.178 227.501 130.098 
598.134 221.989 157.311 
606.035 213.273 195.732 
611.439 225.529 231.955 
607.999 211.454 306.84 
613.599 211.595 337.497 
598.75 213.407 370.033 
607.741 217.432 392.115 
600.859 215.003 431.365 
601.041 223.725 464.786 
611.098 216.134 519.78 
610.185 216.595 633.76 
615.513 221.065 674.064 
602.35 219.317 700.42 
614.258 213.902 730.996 
608.926 300.394 465.114 
605.109 301.2 510.111 
608.558 297.828 602.497 
605.531 303.855 634.156 
613.493 296.623 684.488 
600.497 302.072 434.583 
614.456 301.103 395.896 
614.438 299.022 336.477 
614.293 296.026 295.488 
599.008 299.011 238.017 
601.294 307.378 183.102 
610.066 308.752 128.446 
605.852 304.247 18.8608 
605.412 388.262 493.457 
613.679 376.055 528.902 
605.98 380.278 559.936 
613.57 374.677 620.678 
612.13 384.936 649.29 
604.989 387.81 674.89 
607.779 385.337 421.621 
604.404 379.409 381.588 
602.463 380.452 355.849 
613.701 377.347 326.914 
604.517 372.192 297.445 
609.034 384.324 261.963 
613.068 381.834 240.198 
619.381 377.329 170.462 
611.15 383.468 58.4646 
612.829 456.747 349.542 
602.159 458.933 387.069 
610.346 451.471 468.034 
610.298 449.023 509.487 
615.454 445.115 543.46 
609.391 444.636 572.92 
607.96 451.322 602.846 
613.848 458.802 639.793 
605.085 458.266 659.813 
606.497 454.108 690.835 
604.981 444.873 721.425 
615.666 454.7 316.472 
611.337 448.312 271.365 
609.794 458.1 236.603 
609.384 443.935 197.371 
601.389 442.205 160.036 
613.31 448.16 125.517 
608.167 452.54 95.8193 
615.243 459.363 67.6186 
606.524 448.054 20.1171 
620.191 544.352 309.857 
609.322 542.556 381.785 
617.112 544.683 456.835 
604.027 541.033 537.7 
619.805 532.375 572.762 
604.44 527.768 611.867 
604.837 534.756 692.874 
609.249 528.811 726.383 
617.329 539.931 117.166 
608.621 527.478 70.2762 
614.934 537.76 19.2498 
613.052 604.398 390.336 
609.616 605.824 511.539 
623.087 605.175 555.69 
613.21 611.973 651.348 
611.495 600.17 688.872 
608.287 608.482 719.352 
605.999 608.389 287.827 
617.324 613.007 255.352 
621.033 617.598 199.211 
607.255 616.71 114.779 
620.824 602.135 71.3716 
608.317 608.633 30.4802 
606.881 691.031 431.456 
612.313 679.42 464.175 
605.426 691.798 498.028 
614.815 688.878 566.69 
620.744 678.434 644.842 
604.115 678.952 677.845 
617.435 684.603 704.597 
617.273 690.038 328.545 
611.203 691.746 213.891 
617.774 685.811 161.913 
611.199 682.587 129.451 
606.295 678.287 106.333 
615.398 688.313 76.4033 
642.941 732.373 335.831 
644.73 11.7419 365.597 
641.458 15.7878 485.635 
652.419 730.502 510.464 
657.001 7.77824 633.65 
652.714 7.17565 229.963 
645.141 3.23907 155.516 
654.403 4.87253 3.3706 
644.516 74.1001 407.372 
648.16 74.6033 449.139 
647.932 68.0472 479.215 
649.582 78.3723 565.347 
649.142 79.2078 709.125 
652.149 65.9686 375.075 
655.559 71.9499 344.198 
652.14 69.9619 325.681 
656.651 68.4301 263.928 
658.324 73.5992 236.554 
656.956 73.138 167.18 
648.157 73.2266 112.735 
654.076 65.6805 72.1302 
661.37 69.0932 44.0808 
650.542 72.7259 12.8621 
655.288 156.532 227.862 
642.855 162.834 347.018 
654.433 151.968 418.46 
641.421 152.44 529.338 
651.383 167.442 591.295 
655.426 165.047 641.053 
657.547 155.198 678.099 
657.268 159.889 189.226 
649.544 155.301 151.401 
652.806 153.145 113.657 
655.736 157.418 8.23541 
659.903 214.608 172.007 
660.662 220.744 243.246 
656.063 216.019 280.18 
646.057 223.763 354.949 
653.273 212.192 451.629 
645.962 222.748 482.246 
654.381 223.794 640.594 
656.314 215.405 707.144 
655.559 227.879 58.1725 
654.106 302.447 452.111 
641.167 304.557 488.119 
659.268 287.995 556.644 
654.237 293.087 655.594 
652.841 298.035 726.306 
641.445 300.445 417.385 
656.646 287.847 320.568 
648.184 285.975 292.663 
643.595 296.485 210.892 
641.822 300.905 162.214 
657.689 303.687 125.519 
646.824 305.448 94.4273 
653.649 288.684 30.8674 
655.531 367.47 228.028 
663.88 377.253 258.329 
663.75 377.135 300.539 
648.619 371.228 361.453 
649.608 365.843 387.23 
650.054 364.095 471.92 
653.418 364.72 504.824 
654.928 363.333 625.095 
659.114 378.791 671.136 
661.782 372.626 710.893 
658.678 365.38 190.533 
657.137 369.778 158.877 
650.153 374.243 112.947 
661.407 374.829 22.7126 
639.823 456.959 182.346 
653.176 451.216 222.729 
639.804 451.505 266.185 
644.905 456.501 331.054 
647.947 450.553 360.818 
640.787 446.425 431.155 
642.657 464.833 499.225 
637.684 454.122 531.168 
650.547 460.705 726.973 
651.317 458.633 45.3131 
651.302 522.724 411.654 
655.204 527.475 479.429 
651.203 532.862 513.508 
640.26 531.855 571.582 
650.813 526.506 643.169 
657.497 530.92 680.847 
651.637 527.557 709.669 
654.267 539.477 338.001 
654.989 526.006 265.497 
640.894 539.151 219.932 
643.373 534.687 187.995 
640.468 530.345 155.135 
643.23 533.657 73.8156 
647.391 524.491 47.8927 
665.862 602.933 193.961 
649.537 600.3 218.775 
652.182 607.314 286.439 
650.006 598.728 393.257 
653.904 605.243 460.703 
651.295 606.995 492.777 
658.615 604.088 600.385 
663.717 602.757 729.493 
650.617 603.523 44.1449 
659.088 607.968 19.2023 
653.988 675.977 416.034 
648.446 672.274 452.37 
645.077 667.589 482.404 
652.512 666.221 613.5 
664.048 665.25 647.436 
650.841 665.809 720.306 
655.995 672.646 380.841 
649.954 676.345 347.085 
657.211 662.005 305.972 
655.477 672.077 205.642 
658.846 666.468 129.847 
656.904 674.91 93.9841 
694.668 6.05968 264.458 
694.86 725.246 299.2 
695.261 2.59193 337.855 
703.886 8.16044 408.812 
703.208 724.382 443.433 
693.512 731.045 563.256 
707.863 731.825 651.563 
704.043 5.20586 690.999 
694.75 2.56221 102.138 
696.732 3.86917 78.2378 
705.755 7.11699 34.2123 
696.675 72.7163 277.155 
697.341 85.9171 340.388 
696.172 75.7101 373.593 
694.347 72.9748 407.882 
697.907 76.6469 450.739 
687.462 82.9215 522.346 
695.851 74.3212 564.427 
695.045 75.5487 601.604 
699.76 82.5524 684.024 
688.848 73.1002 706.023 
698.966 79.9256 202.35 
700.121 86.3977 164.615 
693.018 79.12 129.368 
688.491 73.68 89.9779 
711.489 154.252 8.2057 
694.573 146.328 46.9014 
711.944 146.737 133.653 
711.802 145.933 164.418 
709.307 147.523 330.528 
694.213 144.917 373.628 
699.682 150.749 398.915 
711.318 160.369 436.28 
700.601 146.365 474.423 
692.783 159.557 512.959 
701.428 155.782 555.002 
704.455 150.041 620.718 
701.617 145.417 640.079 
704.455 149.46 669.346 
700.012 156.593 708.009 
710.53 229.126 274.262 
705.6 232.96 310.338 
704.841 235.55 347.432 
693.802 239.137 435.162 
696.907 234.358 476.268 
707.919 240.403 509.911 
693.475 228.337 551.641 
708.568 229.099 629.886 
711.77 231.521 235.555 
707.759 228.09 198.268 
698.986 234.099 170.032 
701.705 232.987 136.683 
694.211 225.616 68.9647 
705.696 236.855 31.0741 
698.684 309.216 412.925 
696.768 299.719 457.35 
697.307 299.018 489.403 
704.206 298.606 520.513 
693.024 301.385 561.86 
689.716 303.616 594.592 
704.159 309.117 643.244 
695.545 308.368 673.442 
701.539 300.791 710.361 
706.783 301.505 377.901 
703.355 310.423 322.32 
694.991 293.687 290.125 
697.518 307.344 223.973 
702.023 308.07 182.105 
708.661 304.418 146.77 
706.147 308.544 124.995 
695.656 302.333 103.093 
711.406 373.519 438.387 
705.142 380.219 470.917 
704.1 380.134 496.463 
702.835 376.786 537.718 
709.309 370.106 583.064 
708.78 387.571 616.303 
699.241 372.327 644.239 
700.89 376.869 675.783 
706.135 380.02 715.587 
693.902 375.326 143.372 
709.299 384.972 61.4339 
704.169 371.868 22.781 
687.899 457.133 126.198 
686.932 463.61 167.389 
687.487 461.823 190.641 
692.951 464.812 271.279 
682.663 465.993 317.233 
697.544 463.893 396.064 
686.025 456.54 454.222 
694.7 462.284 563.117 
694.491 466.872 627.321 
699.739 453.39 664.931 
689.799 466.262 702.697 
685.944 462.743 730.615 
689.665 458.506 88.9997 
695.932 453.272 44.0937 
707.728 531.145 453.889 
703.221 525.316 495.56 
693.376 519.329 524.386 
711.069 533.692 555.22 
697.791 534.375 694.726 
706.859 531.469 724.515 
699.371 521.831 291.52 
701.005 537.4 238.064 
694.944 529.745 193.028 
702.725 537.446 96.6129 
700.403 620.187 444.164 
694.952 616.921 565.438 
696.945 610.566 605.695 
705.593 611.227 650.022 
704.82 623.104 684.302 
706.274 609.922 718.58 
687.856 612.054 403.6 
701.621 613.995 340.508 
692.63 620.27 305.362 
695.958 616.213 266.052 
702.235 606.716 226.441 
704.384 615.515 125.369 
701.611 610.96 91.6604 
687.698 614.739 21.8885 
696.275 688.788 119.372 
695.245 689.491 153.884 
686.382 671.859 188.306 
691.846 685.116 277.248 
685.069 690.593 302.49 
684.637 677.07 329.157 
680.579 673.861 454.9 
684.261 677.072 499.622 
689.258 679.193 545.566 
682.526 681.865 573.337 
687.753 675.419 613.064 
680.675 685.601 674.46 
685.94 686.492 85.6444 
678.98 686 44.8308 
689.497 672.473 11.0716 
10.6897 50.705 197.313 
9.83407 43.3047 232.311 
20.8731 40.8612 272.526 
10.2485 42.3003 306.126 
17.5952 48.4943 470.055 
12.9588 39.236 508.963 
14.1859 43.5037 542.668 
5.91893 50.7369 579.642 
10.4285 42.7509 615.535 
12.1365 42.5258 646.354 
5.06978 51.0932 691.433 
20.1337 47.9921 0.719322 
21.2132 43.0705 105.342 
20.4234 51.9964 47.929 
9.42351 37.283 32.496 
20.5088 110.96 131.706 
7.32575 108.713 259.654 
20.0668 110.768 293.101 
8.65334 109.642 322.52 
7.43642 109.128 361.305 
8.71889 106.104 396.495 
8.29473 108.525 535.432 
21.8223 104.433 613.312 
19.9375 119.508 652.785 
6.21531 112.327 682.145 
7.89202 109.976 724.279 
9.60063 103.704 39.5436 
26.9453 199.505 220.495 
16.4987 192.353 255.884 
30.0904 193.123 282.623 
25.5919 192.51 313.722 
18.8442 190.912 345.985 
19.7749 195.755 390.651 
28.5035 195.341 423.892 
26.5234 195.851 502.321 
17.8661 193.862 540.901 
29.4281 200.678 565.807 
20.2326 190.09 605.542 
26.916 185.036 640.321 
17.9441 199.04 686.913 
35.1507 189.642 708.714 
22.5708 191.63 186.088 
28.9671 189.909 112.682 
20.168 270.923 310.644 
26.8517 270.07 383.758 
30.9085 266.281 423.002 
21.4756 274.045 474.71 
19.4538 261.216 710.242 
18.65 271.36 246 
33.9522 262.74 217.5 
26.6576 275.702 177.931 
28.5527 260.395 126.049 
23.1402 259.205 86.5025 
18.0734 261.694 50.1464 
19.7105 348.463 292.415 
29.402 338.352 326.229 
36.0509 336.394 437.205 
37.6271 342.948 459.574 
19.7172 334.262 499.574 
36.8945 347.667 592.841 
26.1082 347.721 637.617 
29.063 335.599 260.655 
26.3155 341.605 238.442 
35.4539 348.846 194.497 
21.0694 339.231 173.803 
29.0573 350.896 102.801 
23.1118 341.923 69.1266 
21.8116 339.39 26.3947 
24.2509 429.726 311.959 
19.9654 421.167 385.379 
26.6243 421.369 424.72 
31.1179 424.278 455.216 
15.6707 428.111 486.848 
30.6201 420.698 559.591 
13.4818 426.178 640.341 
26.3713 421.282 680.131 
16.5866 415.34 721.103 
24.4025 418.324 213.082 
16.0469 420.097 186.869 
14.432 423.238 148.373 
23.0176 417.993 101.585 
16.4681 421.306 60.9817 
24.3601 486.58 107.463 
29.7017 493.651 132.971 
24.5587 498.873 203.438 
17.8008 496.961 243.225 
25.4775 502.641 287.106 
18.7836 498.784 317.518 
23.5703 496.541 359.186 
23.6056 487.605 381.419 
34.1344 493.289 421.141 
17.9581 488.961 468.452 
29.2998 495.003 502.119 
26.963 493.768 577.647 
28.2495 485.441 643.617 
18.5722 495.581 678.098 
19.4131 498.492 709.485 
18.9015 503.268 733.221 
20.7495 502.797 43.6733 
27.8988 496.349 11.0808 
10.8191 566.746 27.9317 
24.0429 576.633 101.681 
14.1766 566.268 138.835 
4.8576 571.103 197.971 
17.8043 580.766 279.934 
22.65 580.972 311.371 
20.406 568.345 343.3 
22.0683 563.815 441.111 
18.5255 576.805 488.427 
9.99153 578.709 524.952 
22.2694 564.584 647.835 
7.17702 576.92 687.43 
25.6614 654.497 151.364 
22.5958 652.326 177.866 
27.5944 654.865 207.657 
18.5184 646.177 289.489 
20.2204 649.334 353.761 
12.466 654.48 390.384 
26.1218 655.45 454.923 
22.8639 649.81 652.714 
28.8582 644.207 679.236 
15.974 652.785 124.828 
9.92623 653.329 15.9995 
5.99038 707.818 453.307 
9.7015 723.456 494.684 
8.40527 711.151 565.916 
20.3916 720.248 601.892 
18.3492 713.507 717.959 
19.7206 710.127 315.058 
16.257 723.774 272.865 
16.316 720.829 231.961 
4.61272 707.077 197.07 
15.8987 711.441 164.123 
17.6013 724.099 118.431 
12.0099 713.079 56.6235 
57.9704 30.8366 413.089 
68.4593 37.0229 450.4 
68.8438 45.7288 482.917 
52.4364 36.0812 558.571 
58.8856 37.8639 619.527 
61.7759 31.3099 728.437 
66.9721 29.135 275.493 
68.0967 41.0531 242.852 
60.4986 37.0378 181.002 
66.2479 37.6879 131.692 
64.7947 42.9255 92.9342 
75.8065 109.763 13.6348 
76.8799 103.147 55.9461 
68.3939 112.939 179.11 
78.481 104.731 248.434 
76.1252 114.847 282.378 
65.2484 102.62 345.269 
74.1891 113.35 369.559 
66.9703 119.26 405.266 
81.7959 112.505 489.654 
74.719 116.425 521.766 
76.3244 118.099 640.593 
73.2672 107.126 672.294 
82.1536 110.194 691.865 
63.9866 197.714 419.626 
68.7377 203.953 542.772 
57.4772 200.047 575.265 
67.8796 193.181 647.631 
67.2129 190.753 353.777 
59.1682 191.471 319.334 
67.1191 187.953 247.046 
67.6718 197.593 104.456 
65.8183 202.212 27.3055 
69.2282 257.973 438.029 
70.1144 265.989 463.185 
69.3685 258.793 498.716 
73.1354 257.246 522.835 
58.4267 268.454 563.412 
73.4971 260.538 595.302 
67.6388 273.504 626.78 
70.4926 264.27 397.92 
63.9195 267.467 351.623 
60.6399 262.958 278.251 
66.2246 259.886 215.651 
60.1261 272.368 123.224 
70.2269 265.287 60.1015 
59.6442 351.153 45.2999 
66.5659 341.29 71.2305 
58.2508 342.763 104.111 
60.3671 350.56 144.3 
68.6554 349.474 178.384 
61.54 340.729 209.319 
60.2951 340.466 282.356 
55.5223 351.886 305.734 
63.092 343.425 350.234 
58.1472 350.7 370.582 
61.8958 339.121 512.729 
66.8821 349.128 535.994 
62.8656 344.434 583.652 
64.085 420.639 138.92 
55.0619 416.143 235.432 
58.1422 417.262 274.644 
53.2681 411.237 303.655 
61.3979 423.821 429.566 
55.7174 417.812 476.127 
52.3849 416.992 559.128 
55.9274 421.844 664.867 
52.3862 415.886 717.482 
64.7816 409.697 51.6463 
59.7536 496.611 447.28 
59.8347 499.8 482.477 
62.122 485.007 520.129 
63.0604 482.847 558.689 
58.4238 489.396 599.834 
65.3739 482.94 623.103 
65.3623 487.989 689.934 
67.4551 495.899 716.121 
70.6791 484.822 403.528 
65.8463 494.703 364.974 
72.9492 481.678 326.096 
64.4686 490.829 259.438 
71.4007 488.08 233.719 
56.9698 494.47 86.5175 
66.9835 496.113 0.263437 
64.1911 571.296 85.5601 
67.1274 574.925 118.145 
68.7283 576.496 183.992 
61.153 578.155 212.274 
62.2394 573.838 238.077 
78.8814 570.193 345.916 
78.5511 578.076 410.031 
65.7287 568.359 445.669 
75.0031 568.263 486.721 
62.1548 580.889 539.418 
76.1442 566.305 564.354 
76.7496 579.752 609.36 
63.5264 570.599 631.489 
63.1667 631.723 332.458 
64.8978 634.459 356.946 
62.2165 645.12 384.078 
63.2027 631.761 427.835 
54.3589 633.469 456.988 
62.4278 636.981 493.437 
57.5458 642.513 523.783 
62.5685 644.366 674.675 
60.1673 638.14 264.738 
67.7084 642.192 234.983 
59.5313 641.201 195.131 
62.3002 635.229 129.277 
55.2968 646.076 83.9367 
64.9018 728.85 404.626 
57.584 722.851 426.289 
66.0574 716.838 462.305 
65.9432 723.763 545.284 
60.9552 723.085 608.624 
62.1637 722.452 374.064 
56.4357 721.882 337.988 
56.2599 714.15 319.94 
67.1187 726.579 268.788 
56.0055 716.673 192.11 
58.5285 716.355 125.962 
66.0127 720.67 99.6472 
109.824 36.1984 197.556 
105.247 47.6219 224.665 
100.402 44.3254 414.252 
97.7646 35.0636 452.553 
106.721 40.4715 560.162 
99.3809 42.4788 593.582 
105.662 38.0826 657.502 
95.0073 29.3409 161.318 
103.369 37.003 126.504 
94.0453 44.8863 98.3784 
98.9331 47.5201 30.3892 
115.132 116.041 512.534 
113.568 113.612 544.857 
113.255 118.192 579.5 
110.291 99.109 666.523 
111.357 104.854 724.878 
101.879 110.978 471.455 
98.3008 117.378 435.196 
106.827 103.799 412.459 
96.088 119.006 296.482 
111.018 115.724 260.608 
99.9171 105.491 225.999 
99.3201 101.34 157.918 
101.661 102.252 133.839 
106.91 108.066 99.2554 
110.636 186.081 455.115 
107.081 189.84 478.735 
109.447 182.214 517.394 
113.197 192.276 624.884 
112.839 188.689 668.082 
109.039 180.912 0.887221 
105.76 181.352 423.395 
96.0103 191.391 389.706 
104.5 180.72 366.897 
109.079 187.241 300.733 
104.716 196.522 265.994 
107.877 192.407 225.707 
100.796 187.227 190.353 
98.7226 195.797 114.223 
112.76 183.697 78.0351 
99.8967 178.797 39.5904 
112.553 195.927 5.15556 
119.625 264.778 376.894 
101.425 253.412 398.284 
119.025 251.582 474.472 
109.569 248.528 527.217 
112.184 264.102 582.892 
105.693 260.603 622.555 
109.932 261.028 681.237 
117.441 249.14 713.912 
118.674 257.482 266.035 
119.908 262.691 232.721 
112.333 256.005 203.446 
112.222 259.032 155.305 
109.663 255.339 115.513 
108.592 245.856 45.9722 
103.629 252.602 5.95196 
116.244 344.857 122.856 
114.013 342.426 197.304 
103.301 345.069 237.683 
105.92 345.348 272.588 
107.988 337.908 482.876 
120.295 347.507 536.27 
112.779 349.339 657.052 
113.762 345.858 681.392 
112.972 337.074 722.499 
106.644 339.006 57.6902 
104.35 337.845 28.5842 
113.559 424.837 416.971 
114.748 426.274 451.963 
113.044 417.356 548.814 
113.621 410.808 592.74 
110.731 413.059 628.556 
116.163 414.324 695.481 
118.68 428.692 387.437 
119.812 427.22 257.161 
110.895 426.206 160.455 
121.42 416.164 107.824 
125.358 409.55 66.5472 
123.913 419.179 29.2683 
108.363 492.067 95.395 
105.992 496.28 132.121 
94.2122 499.419 286.019 
97.149 489.738 351.362 
97.3003 492.107 388.892 
108.266 490.222 458.056 
109.165 485.23 537.465 
92.1788 499.004 605.248 
101.274 485.649 652.374 
94.6634 495.479 684.209 
99.2309 486.629 719.083 
124.555 558.186 277.717 
111.939 565.456 311.319 
110.438 565.893 342.543 
115.602 562.836 380.842 
119.865 568.975 415.857 
112.575 558.357 496.36 
124.99 570.497 536.248 
107.672 571.198 613.512 
109.53 574.403 648.412 
120.596 569.305 677.712 
114.54 563.343 717.273 
108.08 559.814 211.629 
120.419 564.719 149.436 
122.236 563.806 129.67 
109.259 568.261 110.663 
112.719 569.661 70.4787 
122.937 568.151 29.2912 
109.108 642.097 324.623 
103.939 639.239 451.358 
109.385 652.363 505.772 
108.324 654.032 530.364 
101.881 639.63 601.378 
110.095 641.541 652.105 
97.2446 649.171 690.187 
108.066 642.576 287.431 
111.595 653.922 257.359 
113.084 645.243 215.985 
97.0516 641.075 150.553 
95.9124 641.278 115.18 
111.31 641.525 77.1741 
113.166 724.071 50.7995 
102.137 721.239 252.539 
103.395 716.423 328.904 
108.651 728.53 365.147 
116.605 715.61 407.49 
109.375 712.903 439.603 
110.599 714.488 565.315 
103.246 717.883 637.965 
103.663 723.69 658.304 
113.278 725.048 691.847 
154.759 36.9194 341.879 
161.862 36.5738 384.878 
164.772 41.5989 487.959 
166.179 46.399 627.52 
162.771 45.2663 664.882 
151.053 50.4343 699.538 
154.025 45.91 196.688 
153.707 38.5384 176.08 
150.593 45.6536 135.559 
155.181 50.3613 95.9186 
155.599 41.9045 7.70708 
149.515 114.091 368.589 
157.431 118.484 407.644 
148.749 124.642 509.384 
156.948 128.003 534.802 
144.165 114.692 569.176 
141.558 110.695 600.667 
157.348 113.641 305.853 
142.892 127.421 278.595 
157.659 120.299 195.601 
152.67 117.692 158.392 
142.775 128.016 134.091 
140.77 125.707 59.3444 
155.894 117.173 13.5955 
154.891 198.58 280.633 
153.446 190.695 309.246 
137.185 193.778 393.579 
148.787 199.267 435.003 
143.973 184.559 478.179 
139.364 185.573 507.955 
146.407 193.829 543.522 
141.955 197.859 621.899 
149.844 193.078 694.008 
150.62 185.113 223.117 
153.121 199.878 199.256 
136.275 188.949 113.087 
142.126 184.051 12.3842 
158.756 262.107 343.236 
149.15 262.998 371.726 
145.254 261.959 443.25 
148.969 274.803 479.99 
142.871 277.279 509.59 
149.066 265.801 543.524 
142.66 271.773 620.463 
141.994 274.144 690.022 
158.887 263.504 727.187 
154.378 274.313 312.274 
144.365 271.659 271.965 
141.247 267.291 206.278 
154.834 265.768 170.419 
155.868 274.984 125.131 
151.18 264.809 82.6796 
150.76 268.704 58.1512 
146.794 274.914 14.4969 
151.833 345.871 341.207 
157.305 335.075 365.755 
162.23 345.021 532.869 
162.367 353.267 570.337 
167.662 335.133 618.298 
158.647 349.461 116.384 
155.732 348.018 90.7154 
146.235 404.538 227.007 
143.396 408.549 249.432 
148.113 411.414 308.892 
156.33 417.651 365.405 
157.488 404.872 440.001 
152.805 414.273 526.63 
156.504 411.318 554.704 
148.633 404.267 729.388 
142.651 415.333 185.648 
149.244 404.016 115.537 
142.941 409.996 77.6463 
142.132 412.609 32.5326 
138.27 482.259 441.061 
143.273 487.307 533.889 
147.863 476.951 565.561 
152.803 490.931 581.898 
142.586 475.367 641.629 
142.007 491.438 703.203 
148.142 481.609 412.633 
152.551 479.733 378.883 
144.045 482.647 343.668 
148.7 491.332 300.346 
143.237 489.95 266.95 
151.939 482.815 234.534 
140.369 489.777 172.247 
147.498 485.508 138.107 
144.558 484.162 96.3743 
151.16 485.067 67.8029 
136.886 478.881 35.1931 
146.349 481.951 11.0902 
156.1 565.119 272.636 
143.238 566.955 301.392 
147.431 563.169 350.847 
142.351 555.287 401.57 
150.172 566.011 452.784 
148.049 557.591 475.765 
152.828 550.018 511.028 
150.462 564.657 544.162 
144.2 551.282 647.707 
158.214 559.378 689.56 
153.434 557.691 241.217 
156.216 554.529 143.461 
156.197 563.312 112.648 
156.808 564.671 0.624298 
138.19 638.888 59.0611 
141.936 631.775 88.1878 
151.208 627.34 216.588 
143.018 628.761 343.11 
143.75 628.618 369.952 
134.968 638.451 411.97 
147.072 640.965 502.365 
149.384 626.537 534.43 
145.807 636.264 577.269 
141.871 633.338 641.187 
143.458 638.104 702.15 
154.683 724.998 37.123 
147.792 732.153 69.9572 
144.67 727.398 98.1293 
153.223 720.063 144.699 
154.048 731.053 203.725 
150.733 723.501 243.94 
156.204 724.509 305.215 
156.019 718.685 374.819 
147.356 732.511 417.877 
143.866 719.717 449.434 
143.495 719.697 477.37 
150.36 715.967 510.523 
149.782 731.331 636.782 
148.708 721.642 717.494 
156.084 725.349 3.57332 
192.64 49.3821 532.495 
188.672 47.0877 615.72 
186.73 45.3075 693.771 
181.711 46.11 455.103 
187.139 52.0167 417.341 
192.94 41.9578 329.102 
189.669 52.3313 302.666 
193.175 34.9799 274.773 
184.921 38.677 240.591 
182.134 52.4289 178.688 
180.656 43.9571 144.518 
185.486 48.122 117.964 
183.873 44.9305 94.2789 
185.434 34.3953 67.3313 
193.744 49.5973 15.3733 
200.626 111.459 276.07 
195.526 117.821 306.565 
192.689 127.314 338.734 
196.248 117.725 374.206 
192.859 117.648 453.448 
197.991 121.106 522.518 
192.626 115.295 559.805 
191.974 120.142 624.627 
199 116.747 700.439 
201.662 110.494 216.092 
196.707 114.576 190.115 
192.3 114.697 146.199 
190.836 115.029 30.8425 
202.332 190.052 109.543 
198.34 188.516 156.221 
198.798 190.592 199.315 
210.35 186.113 239.947 
205.015 172.366 274.697 
203.836 171.652 304.492 
207.086 186.02 342.287 
205.74 187.42 368.22 
200.671 177.802 450.604 
208.906 176.716 486.211 
191.644 182.55 515.907 
193.322 175.442 560.772 
201.763 187.813 594.59 
197.579 191.55 664.125 
196.443 172.957 696.451 
189.692 176.254 47.3672 
196.956 269.88 178.407 
193.702 276.893 218.212 
199.546 270.095 257.114 
195.681 269.655 318.368 
198.451 267.656 391.538 
201.223 268.81 423.39 
190.649 267.571 493.396 
196.749 266.644 539.995 
198.924 267.149 614.135 
195.468 261.443 657.401 
197.573 267.585 681.895 
193.377 267.695 99.4779 
192.163 265.95 43.2836 
196.916 345.092 189.526 
195.402 346.876 220.821 
197.166 337.737 336.128 
189.841 332.114 397.317 
185.111 347.465 482.798 
191.78 340.128 512.809 
198.968 346.259 555.515 
194.462 333.131 692.122 
183.763 346.277 725.739 
191.726 348.631 152.701 
196.864 420.566 383.155 
193.432 412.752 397.594 
191.602 411.533 438.737 
194.421 413.791 473.304 
198.466 409.884 544.604 
191.762 417.938 642.265 
197.245 408.229 711.358 
183 418.306 174.85 
193.621 412.441 107.615 
187.968 407.864 79.6439 
185.446 402.434 44.0894 
188.218 500.009 157.001 
181.612 490.359 188.527 
181.907 500.093 202.834 
193.387 493.013 227.222 
179.077 492.088 256.871 
198.931 496.186 325.168 
179.218 485.773 408.505 
179.612 482.954 454.785 
182.786 500.063 494.33 
185.102 483.002 654.085 
185.462 492.546 671.253 
188.381 490.338 707.274 
192.216 488.912 101.247 
194.814 488.481 28.6369 
200.745 573.231 257.203 
199.773 559.319 320.805 
190.62 576.03 351.599 
199.167 561.296 433.65 
195.952 572.541 470.043 
192.592 569.197 512.347 
197.972 570.73 578.552 
204.349 569.734 610.425 
187.338 573.294 704.278 
186.45 573.642 729.938 
200.585 574.231 179.001 
193.618 559.981 159.679 
191.047 559.521 84.3428 
190.369 648.116 309.596 
188.747 642.532 344.422 
196.336 635.097 376.686 
181.319 648.819 407.336 
196.86 649.955 438.575 
