384.147 177.768 235.156 
376.489 182.148 202.081 
385.36 177.008 169.037 
386.556 176.058 144.24 
378.249 257.748 36.5974 
376.194 253.011 56.7053 
379.017 256.861 191.977 
363.182 253.221 226.709 
379.146 255.973 267.155 
373.341 256.281 309.83 
377.163 253.667 517.229 
364.368 264.819 527.811 
380.287 263.441 592.652 
374.431 268.744 732.521 
362.881 259.308 3.49078 
362.907 346.008 105.018 
361.883 346.572 168.434 
367.758 350.338 248.995 
374.315 339.66 276.833 
376.283 341.041 318.923 
373.532 336.457 359.069 
365.48 341.098 409.228 
374.327 336.627 436.411 
363.417 338.23 503.595 
362.831 344.073 562.488 
375.799 343.042 590.207 
364.134 337.712 653.953 
368.722 341.312 684.16 
373.29 418.29 364.723 
370.425 426.325 400.912 
361.636 417.099 518.408 
374.762 420.517 539.738 
374.522 428.899 566.798 
363.951 429.369 693.879 
358.498 420.422 292.591 
372.56 424.86 188.611 
358.73 430.906 156.368 
361.052 423.044 91.9075 
375.45 431.35 56.2395 
376.964 488.473 315.533 
370.521 498.823 361.226 
363.721 484.483 432.563 
364.487 489.416 509.623 
363.593 492.309 573.338 
364.847 491.689 599.665 
375.342 485.676 673.793 
380.402 489.512 710.215 
379.266 483.787 143.889 
371.621 482.053 105.028 
371.088 491.94 33.45 
375.518 497.441 13.0419 
381.956 575.321 435.624 
371.965 572.188 458.423 
379.346 571.796 488.519 
370.152 577.649 520.56 
375.916 567.807 550.239 
368.943 564.207 623.819 
372.207 569.968 651.654 
379.135 577.609 688.576 
367.579 577.455 722.36 
374.111 572.992 404.286 
378.902 564.036 375.72 
376.474 569.716 303.593 
374.516 578.713 275.832 
371.149 568.09 201.903 
378.274 570.13 159.533 
370.634 573.745 121.5 
370.916 575.918 84.5812 
371.504 569.048 41.8207 
378.197 569.944 9.45232 
382.483 628.021 435.778 
380.747 632.857 481.297 
370.254 632.095 512.997 
384.259 629.122 593.422 
379.256 628.489 629.184 
373.271 627.222 666.016 
378.284 630.45 701.133 
380.786 627.215 405.065 
383.246 643.159 378.642 
384.939 627.977 299.048 
384.711 633.418 231.765 
372.346 641.877 166.41 
378.999 626.753 132.545 
374.4 725.423 226.776 
372.58 731.265 293.533 
374.23 720.01 332.961 
380.98 0.190587 418.068 
381.237 718.018 493.506 
378.897 732.012 565.949 
369.008 732.708 613.103 
375.352 721.088 681.82 
378.188 725.452 83.4315 
364.795 716.789 41.4832 
371.105 722.369 6.56971 
418.704 35.4953 189.62 
413.601 28.6124 237.129 
410.998 36.0856 262.86 
422.062 32.4969 305.892 
416.165 23.1314 346.108 
418.088 26.2044 389.034 
423.71 27.1101 427.288 
410.398 28.5132 496.957 
415.841 26.367 530.883 
425.019 35.6472 563.295 
419.842 22.8752 680.244 
420.436 34.228 161.497 
415.234 32.099 122.339 
409.664 27.5922 58.9049 
415.385 29.2981 41.8667 
407.909 104.781 109.827 
410.022 109.549 143.578 
412.489 115.676 180.04 
412.036 101.857 217.998 
419.44 109.313 304.808 
422.206 111.419 335.678 
411.722 102.735 371.637 
420.124 109.956 418.832 
415.166 100.907 490.139 
423.169 101.221 524.609 
412.892 99.4733 569.177 
423.308 102.788 601.406 
416.301 100.224 668.681 
425.367 111.323 80.468 
418.12 102.925 52.0938 
412.269 179.227 204.09 
414.927 176.375 280.31 
415.529 188.228 401.547 
416.673 187.229 479.364 
403.419 185.576 512.36 
411.551 183.085 543.617 
412.218 171.65 616.048 
402.353 177.998 647.344 
401.336 180.847 685.699 
401.742 185.472 130.774 
413.199 185.058 100.803 
406.511 177.395 74.1755 
400.895 186.674 11.4367 
411.579 261.064 335.206 
411.421 266.562 372.248 
398.091 274.178 405.064 
396.624 263.438 505.199 
400.698 260.949 542.256 
397.112 273.293 608.309 
405.368 276.016 696.604 
405.715 262.69 723.771 
398.602 269.315 301.884 
409.109 275.388 261.601 
412.36 262.047 199.246 
408.218 264.584 170.62 
405.108 263.758 92.8252 
411.375 268.502 25.4184 
412.828 273.453 0.185364 
416.659 350.417 299.568 
415.558 342.794 366.934 
425.109 337.011 389.86 
411.779 346.457 434.842 
423.915 333.558 467.466 
423.285 335.957 506.36 
413.895 339.69 561.092 
418.809 341.158 637.281 
425.298 349.578 263.049 
421.438 348.288 222.666 
420.077 344.938 199.046 
408.23 337.009 160.414 
415.787 333.185 118.741 
416.655 336.751 82.4106 
410.025 416.712 98.4132 
416.431 421.643 143.87 
401.295 426.194 214.434 
408.062 420.519 244.584 
402.935 429.918 280.184 
405.419 427.108 307.821 
401.259 420.291 346.486 
412 425.072 408.549 
414.79 419.777 562.566 
401.597 415.811 592.763 
404.87 416.774 664.902 
416.002 426.02 704.127 
402.434 416.696 60.8028 
398.49 481.83 261.355 
403.409 482.74 294.429 
412.833 474.773 341.592 
406.733 484.75 376.39 
405.83 480.009 403.464 
403.466 486.926 435.743 
402.541 475.018 467.027 
413.016 475.656 567.847 
411.763 482.915 641.527 
413.501 488.054 673.089 
399.426 478.888 696.828 
414.711 482.865 732.782 
404.777 474.684 231.98 
402.661 482.098 170.456 
401.613 474.08 85.4693 
407.914 479.017 41.9583 
416.676 551.532 86.9651 
414.965 557.04 121.533 
424.766 554.735 162.404 
412.61 561.811 199.089 
419.055 564.201 228.562 
413.483 560.926 302.363 
427.748 565.206 335.785 
429.26 558.04 445.147 
415.956 555.577 479.817 
425.595 550.663 509.238 
429.674 551.212 542.303 
417.355 554.848 573.248 
413.438 557.412 661.467 
422.144 563.622 699.011 
413.352 564.935 731.082 
415.75 556.967 55.191 
417.288 642.563 198.45 
410.18 638.733 233.337 
400.848 632.867 267.72 
413.947 632.318 314.465 
411.98 639.065 352.228 
405.087 641.945 387.816 
415.515 631.715 495.756 
404.006 628.099 557.961 
406.858 635.177 602.722 
411.799 637.075 630.148 
407.951 629.241 700.976 
409.112 634.408 167.852 
417.665 644.198 130.381 
412.605 641.539 100.416 
412.911 640.298 69.07 
401.749 631.187 22.6518 
415.072 720.041 471.258 
419.57 717.821 538.487 
420.252 717.851 570.458 
410.816 718.108 664.865 
417.952 723.54 341.706 
407.132 717.441 312.689 
412.248 728.587 240.718 
412.689 715.557 201.561 
409.002 713.494 167.384 
422.038 722.886 123.239 
421.569 728.897 97.2365 
411.271 730.615 56.6174 
413.352 728.982 27.8809 
420.376 716.231 0.0947972 
464.527 43.8569 492.563 
456.824 45.3189 641.162 
467.961 43.0866 717.834 
454.365 44.2185 428.946 
458.312 38.2588 392.396 
453.635 32.5821 368.684 
465.194 44.648 271.078 
455.505 31.2346 233.917 
458.638 28.4865 77.1443 
461.713 42.0032 39.7593 
454.772 101.068 279.217 
463.79 100.923 314.441 
454.842 108.104 349.466 
468.059 106.808 387.533 
469.763 102.146 421.681 
465.955 112.212 498 
464.707 113.35 540.067 
466.582 101.641 576.232 
467.331 104.858 624.435 
465.302 103.774 667.735 
457.473 116.157 704.3 
464.005 105.97 193.137 
463.269 102.998 159.467 
465.51 103.848 124.285 
455.26 104.328 107.938 
466.911 110.981 78.9665 
455.937 103.242 61.0856 
456.196 108.94 23.0142 
472.782 184.521 202.406 
461.099 181.618 233.419 
469.243 182.637 299.787 
459.977 178.698 339.549 
471.583 174.754 367.01 
463.613 185.626 434.525 
459.141 189.685 522.246 
472.899 184.947 550.513 
458.087 173.264 587.168 
463.421 178.33 140.031 
460.77 184.294 38.839 
448.175 258.317 78.8345 
460.121 256.489 274.671 
455.815 251.41 297.5 
450.046 263.711 328.143 
465.264 253.551 364.276 
450.816 254.894 398.396 
465.625 250.133 434.005 
447.919 257.555 455.094 
461.402 252.617 488.976 
457.126 253.735 512.344 
449.549 258.59 589.203 
458.762 263.632 612.268 
455.432 248.477 724.392 
454.217 261.393 4.07368 
456.136 337.628 227.365 
464.19 331.7 297.082 
448.097 331.169 338.369 
448.447 331.143 374.412 
447.801 343.128 395.948 
450.409 336.403 436.99 
450.793 347.178 458.152 
456.576 330.545 496.496 
458.892 338.919 528.828 
462.32 347.1 569.21 
453.3 335.591 590.885 
458.005 337.711 722.232 
449.761 333.728 196.639 
463.595 341.407 174.711 
459.462 344.891 124.34 
453.182 334.887 85.4408 
450.472 340.521 47.7942 
457.211 406.139 250.746 
443.718 413.793 299.763 
456.046 415.34 378.55 
448.502 411.277 418.619 
440.236 415.345 445.492 
441.767 422.276 480.843 
453.133 413.447 552.154 
441.821 407.616 576.602 
439.416 413.549 704.06 
455.477 410.408 176.958 
440.674 408.83 145.018 
448.559 420.79 119.7 
441.625 407.025 90.3207 
455.995 412.747 41.8024 
440.666 414.376 5.61182 
462.327 486.449 50.6797 
449.681 504.134 117.689 
450.948 490.73 148.064 
456.349 502.035 181.621 
446.757 503.466 215.96 
448.467 486.232 319.909 
452.18 486.994 350.87 
452.715 489.394 441.33 
453.237 500.467 473.101 
453.783 502.452 515.914 
445.976 502.695 589.085 
451.102 497.96 623.762 
457.604 492.304 665.396 
457.283 489.038 701.86 
454.495 498.316 732.826 
451.113 486.996 16.641 
456.713 570.276 471.433 
469.709 570.92 505.312 
471.129 563.492 559.513 
459.745 568.677 590.794 
464.879 566.802 615.219 
458.141 577.046 646.672 
462.869 573.204 717.869 
458.395 569.451 434.072 
456.809 572.249 354.024 
461.486 574.793 326.311 
457.226 575.349 215.292 
468.655 574.783 192.79 
457.445 573.381 164.059 
457.231 576.956 87.5832 
469.572 649.448 365.185 
467.62 648.873 391.164 
457.92 633.319 426.415 
469.189 646.543 465.822 
457.07 649.961 485.465 
461.108 642.048 537.293 
466.219 635.348 569.693 
466.166 650.516 651.046 
466.073 637.324 687.668 
466.37 633.16 720.104 
458.485 641.987 335.806 
469.888 641.816 277.156 
461.299 634.037 226.37 
455.948 648.98 197.999 
454.272 645.171 113.497 
469.54 634.323 50.6068 
444.201 712.361 466.662 
445.006 716.652 565.757 
442.844 703.124 646.508 
446.78 705.427 679.475 
449.05 715.403 307.882 
444.506 708.991 276.572 
440.179 716.944 236.994 
449.563 713.275 195.267 
454.444 714.143 142.542 
457.082 713.606 58.0267 
441.781 705.66 36.5552 
446.411 714.331 8.68212 
488.729 38.2782 395.352 
500.551 37.07 431.317 
489.462 38.7333 459.214 
496.572 40.0393 531.498 
484.305 44.9642 564.665 
484.914 36.7906 599.246 
497.318 47.3992 642.766 
486.149 46.1513 706.89 
489.427 37.1059 342.641 
490.073 40.8418 315.904 
492.469 47.1769 279.881 
495.509 47.6249 244.508 
500.589 37.4784 194.808 
500.032 39.2144 150.669 
499.506 37.5897 111.707 
487.281 52.7126 1.92373 
500.144 98.3025 421.121 
503.568 113.731 456.158 
506.963 102.034 481.942 
512.358 114.841 512.864 
503.657 109.028 551.353 
506.1 114.053 587.297 
510.667 111.207 629.152 
504.7 103.742 671.298 
516.029 111.758 390.217 
512.711 112.492 353.51 
505.606 103.145 281.741 
508.971 110.591 240.649 
506.934 112.357 167.137 
504.846 109.237 122.525 
506.285 114.867 98.9046 
509.023 101.438 65.0578 
506.075 102.425 35.4001 
503.777 97.5483 9.94006 
490.551 195.654 287.303 
499.543 196.152 314.161 
493.016 200.124 378.647 
491.923 185.205 414.427 
502.046 184.015 437.163 
503.594 199.107 503.546 
502.128 185.039 534.046 
487.937 201.009 570.666 
488.266 199.416 648.416 
500.107 185.149 148.725 
512.078 274.533 182.374 
500.928 275.382 227.319 
497.169 264.892 252.419 
500.166 266.336 282.843 
505.352 268.071 323.105 
498.467 275.715 368.899 
499.454 264.848 392.979 
505.334 262.23 464.513 
504.362 275.55 505.628 
509.579 268.999 542.094 
501.216 263.976 574.418 
505.633 271.898 622.385 
511.158 276.171 658.151 
507.936 266.377 36.2687 
494.288 348.863 194.381 
499.54 339.506 343.813 
500.895 334.96 506.856 
503.022 338.27 581.021 
502.396 337.333 681.07 
487.096 346.13 721.069 
501.052 349.797 120.666 
503.299 349.356 20.9333 
502.305 417.766 2.51822 
502.679 417.048 37.5658 
494.763 417.849 154.568 
497.363 418.457 222.911 
496.759 418.819 253.714 
504.723 412.96 285.404 
493.442 423.762 317.886 
493.904 416.838 426.895 
500.477 411.784 574.796 
508.525 423.557 609.699 
501.076 413.926 643.991 
499.298 412.373 717.823 
497.269 490.324 130.85 
497.014 494.272 151.106 
495.013 503.672 186.518 
488.32 497.558 214.299 
494.062 499.095 283.289 
502.816 503.782 526.517 
497.59 495.316 556.643 
501.81 490.389 580.597 
493.251 489.291 610.507 
502.609 490.48 650.412 
490.407 496.464 687.202 
486.983 502.088 723.549 
503.532 497.981 26.1315 
509.44 578.723 307.297 
506.841 570.906 384.402 
496.935 572.074 536.529 
497.21 565.355 569.328 
502.324 567.607 627.414 
506.432 577.807 665.3 
511.342 568.214 695.7 
506.279 571.866 271.317 
510.235 566.012 230.952 
509.199 562.3 185.809 
500.736 566.184 82.2841 
502.135 568.81 34.6455 
502.191 636.263 53.3111 
501.028 636.6 84.2204 
494.878 641.212 198.619 
504.054 635.423 283.31 
499.345 645.685 321.052 
495.995 638.81 357.859 
488.253 644.623 391.266 
505.296 636.899 461.343 
495.49 640.824 518.688 
499.337 650.808 584.363 
488.668 639.755 646.303 
496.812 646.188 675.545 
489.512 704.561 135.673 
497.387 704.035 235.842 
493.576 711.627 306.681 
497.195 700.036 333.867 
496.692 699.184 403.95 
499.042 700.074 470.983 
504.935 708.736 580.711 
497.645 700.288 614.135 
506.694 705.887 722.635 
496.064 708.198 1.71228 
550.907 25.0601 404.815 
546.541 31.9759 437.679 
539.366 33.5279 480.849 
541.874 36.2936 527.654 
540.392 26.7839 557.981 
538.066 37.0615 586.685 
537.423 34.9123 624.304 
550.574 37.6068 338.155 
549.952 34.6273 299.532 
549.008 25.2571 198.935 
539.611 35.0193 156.159 
537.913 39.2432 69.1306 
547.046 35.5813 35.1272 
556.76 108.736 232.146 
553.245 98.087 276.207 
551.928 100.876 399.219 
550.947 105.078 430.692 
546.437 108.609 462.821 
546.76 103.658 540.435 
558.712 108.614 567.304 
554.45 108.608 597.797 
556.165 114.006 690.752 
548.307 112.088 731.015 
547.543 100.109 177.271 
559.606 101.972 148.953 
559.409 112.34 112.155 
553.498 107.013 52.8493 
546.798 185.226 474.264 
551.683 192.498 518.959 
553.85 182.924 555.559 
543.66 187.391 590.735 
548.575 190.525 622.804 
555.353 187.453 655.112 
555.737 183.176 382.404 
547.99 194.163 362.496 
541.217 191.053 337.792 
549.16 188.417 312.496 
551.72 195.132 241.886 
556.12 189.906 216.374 
548.364 194.17 184.135 
545.796 194.475 131.921 
547.6 186.957 113.772 
536.615 271.369 275.461 
544.844 270.225 340.313 
535.179 273.215 435.224 
551.21 260.666 478.017 
552.327 273.968 506.981 
553.027 262.51 539.948 
547.669 263.721 578.045 
536.095 275.774 617.64 
540.519 260.368 646.593 
550.643 259.194 715.185 
535.263 275.035 62.7506 
544.675 264.183 31.0364 
545.113 339.275 43.6995 
550.37 343.587 103.14 
548.179 343.347 144.399 
543.289 330.099 252.178 
538.961 332.787 320.58 
546.619 343.094 385.87 
547.309 339.229 459.627 
543.504 330.381 504.464 
555.594 329.772 571.603 
539.159 341.74 602.103 
545.605 341.676 681.768 
540.433 418.292 205.954 
543.394 402.628 319.147 
545.697 408.356 352.718 
547.535 417.045 423.496 
545.157 402.22 494.045 
540.433 406.096 527.329 
547.696 402.305 654.178 
553.548 419.243 708.929 
546.512 414.847 18.5794 
548.66 482.17 271.75 
544.181 499.827 303.165 
537.991 485.425 334.133 
543.045 498.522 363.364 
549.751 483.22 391.016 
546.868 498.658 423.488 
544.366 491.275 530.034 
545.277 488.511 604.39 
550.924 496.024 680.66 
547.277 498.979 724.53 
538.28 489.288 234.236 
538.495 483.836 200.58 
542.472 482.25 162.912 
537.808 491.988 122.935 
543.888 493.309 56.7496 
543.334 489.209 22.8597 
551.69 569.566 300.802 
542.7 566.817 398.992 
553.286 577.556 451.221 
538.437 566.954 486.092 
553.087 573.414 562.33 
550.844 582.728 591.192 
552.164 576.964 721.22 
539.695 579.621 266.305 
552.694 568.672 235.847 
551.018 568.499 102.055 
549.055 581.936 65.9595 
547.153 578.5 31.9432 
555.849 633.188 352.842 
556.209 640.13 386.884 
553.003 635.347 418.801 
552.935 633.154 490.928 
545.156 638.395 529.983 
544.647 645.059 570.072 
550.349 640.248 605.2 
539.41 639.084 641.232 
549.403 642.188 675.943 
555.475 639.695 714.372 
549.71 644.486 187.653 
556.591 633.792 162.889 
539.519 640.64 110.729 
537.253 721.515 532.348 
531.18 715.943 562.879 
529.035 723.277 643.241 
534.686 711.384 684.304 
528.606 721.798 454.81 
541.759 718.822 414.741 
541.092 726.586 352.819 
544.132 726.724 265.209 
533.703 722.833 192.954 
538.845 711.277 125.181 
532.228 724.342 77.3138 
573.402 50.1428 555.681 
573.074 38.666 693.018 
575.252 39.0879 458.058 
573.525 39.8207 425.858 
577.044 39.6092 202.361 
576.977 42.4573 171.854 
586.749 49.1427 133.651 
574.879 51.2364 86.9557 
574.343 38.6984 57.6698 
575.329 42.3716 27.5027 
599.714 109.773 519.736 
588.39 105.028 589.992 
592.923 107.082 664.135 
593.033 100.614 712.243 
595.216 99.5232 421.903 
600.637 106.045 396.066 
599.464 97.3131 370.337 
600.003 106.707 333.833 
599.109 106.127 286.719 
589.151 100.155 187.592 
594.707 113.614 172.417 
596.531 107.777 133.971 
593.756 107.998 73.2937 
597.929 106.02 33.1372 
585.953 186.387 190.046 
591.372 180.069 255.991 
581.205 187.608 282.49 
582.833 182.606 319.887 
587.83 181.303 355.091 
578.888 171.827 449.788 
580.894 179.204 484.768 
581.371 173.212 597.843 
585.666 171.791 656.217 
578.085 186.93 689.707 
581.859 178.695 158.256 
586.239 187.506 134.652 
584.923 184.836 100.32 
584.859 178.488 67.3563 
588.313 175.713 33.3115 
584.895 260.899 125.12 
600.997 273.196 158.978 
591.237 269.869 187.266 
599.454 272.01 244.099 
597.085 265.634 323.021 
593.464 271.929 365.01 
585.218 264.448 479.885 
595.954 268.642 518.201 
591.907 260.808 601.52 
602.561 264.75 675.957 
601.352 263.046 717.55 
598.298 266.562 55.6959 
586.518 271.301 18.7543 
590.417 344.126 283.651 
592.46 339.2 310.138 
583.004 347.223 351.904 
581.538 339.874 434.428 
587.463 342.624 472.933 
580.957 339.052 508.231 
596.716 353.722 563.89 
580.494 352.967 636.706 
586.364 346.881 666.435 
594.072 350.438 694.228 
591.777 348.482 732.911 
584.731 343.328 220.813 
595.345 346.992 149.003 
592.603 339.793 115.529 
596.979 348.139 21.9533 
595.629 413.903 241.825 
583.144 417.922 277.493 
585 410.869 385.576 
586.558 410.355 417.481 
581.784 420.653 450.034 
579.5 416.232 561.023 
578.238 406.594 602.806 
582.483 415.633 634.487 
580.401 406.997 726.302 
583 409.489 211.454 
594.76 411.72 178.395 
586.36 417.802 146.314 
585.112 409.02 12.9585 
602.739 490.073 70.9924 
591.435 479.961 105.139 
593.942 494.418 137.407 
595.623 494.787 176.022 
592.148 494.817 206.153 
587.168 479.572 273.336 
598.71 489.874 346.538 
592.124 492.265 385.82 
602.092 480.905 425.116 
587.787 486.18 496.76 
602.362 488.472 526.99 
589.121 483.487 570.013 
585.358 573.644 277.676 
589.107 560.937 338.621 
595.78 565.324 407.017 
584.76 566.058 434.112 
591.328 572.2 466.533 
589.632 568.967 499.601 
597.158 568.12 566.325 
584.621 572.122 598.802 
592.874 560.627 631.857 
589.097 571.225 660.235 
584.007 572.646 729.641 
589.282 567.487 122.653 
588.994 561.846 30.2447 
589.255 645.692 319.364 
584.896 635.019 376.057 
591.737 640.49 408.748 
593.857 638.99 440.554 
584.79 633.101 535.173 
593.874 634.683 578.494 
584.474 635.627 621.34 
585.174 636.4 666.292 
581.904 636.641 691.48 
593.607 638.969 236.788 
585.714 639.756 127.442 
595.391 644.352 98.5572 
598.503 636.228 81.301 
590.644 643.733 8.44874 
597.269 718.703 489.339 
588.177 714.028 521.211 
585.679 717.351 556.984 
589.213 720.953 628.879 
591.118 709.263 692.68 
590.072 723.296 733.201 
590.053 709.398 360.619 
591.839 713.671 238.484 
595.16 707.949 191.742 
595.625 716.18 160.047 
597.459 709.02 123.724 
587.641 712.584 28.7164 
641.242 32.1429 214.945 
638.686 32.5163 253.321 
628.796 44.3096 383.37 
643.353 31.9799 424.145 
626.933 29.6457 453.661 
632.286 41.4915 497.011 
634.949 42.5733 581.772 
642.838 43.3976 622.189 
640.721 35.6417 635.865 
643.051 32.4643 665.252 
643.061 44.8754 713.351 
623.713 29.3804 731.041 
632.005 35.24 117.221 
637.097 29.1164 43.2243 
635.419 36.6711 4.58985 
619.502 114.469 363.272 
620.452 123.286 391.872 
632.567 124.529 425.557 
625.959 119.049 466.496 
631.302 113.203 497.369 
627.61 129.168 559.55 
631.152 113.983 595.916 
629.661 118.285 663.817 
624.368 113.337 700.304 
621.245 114.471 334.387 
615.878 113.792 174.236 
631.592 115 135.287 
627.295 120.759 40.9934 
624.928 183.793 38.3265 
633.709 195.096 194.977 
630.203 188.968 232.752 
634.047 188.081 271.684 
619.032 188.261 404.524 
618.332 184.642 440.136 
625.449 191.02 546.653 
618.774 186.421 585.454 
619.012 197.481 618.071 
618.264 180.25 724.29 
628.91 266.316 263.933 
630.295 260.999 336.742 
626.84 268.241 365.776 
622.163 256.989 494.352 
625.258 270.189 524.726 
616.062 261.884 565.457 
618.968 259.687 676.615 
626.996 260.563 22.7507 
636.629 337.724 185.396 
630.591 335.186 246.009 
628.62 338.214 280.453 
631.96 346.252 310.101 
626.414 341.51 335.166 
630.7 345.413 366.319 
637.56 339.221 398.4 
629.407 347.523 435.351 
635.87 335.422 473.976 
624.719 346.956 507.71 
635.764 333.77 544.556 
638.49 341.76 616.445 
636.055 341.024 655.17 
628.873 341.525 708.659 
625.505 338.06 151.726 
631.685 337.494 84.4297 
634.532 334.386 5.27902 
636.425 413.911 374.2 
643.808 415.105 442.141 
641.799 414.643 508.678 
636.266 419.773 608.476 
645.194 422.081 643.255 
635.93 423.587 679.705 
645.612 408.592 709.551 
631.169 423.517 300.233 
640.552 415.519 263.692 
647.251 420.191 235.338 
639.176 409.348 194.471 
645.507 418.403 159.6 
631.255 406.895 121.251 
645.431 406.895 11.9058 
632.05 484.619 435.645 
619.127 495.711 461.538 
628.842 487.722 544.636 
629.259 493.023 575.535 
620.139 486.966 611.722 
619.179 494.815 678.041 
621.389 493.707 700.381 
621.223 494.256 352.966 
618.192 493.95 286.513 
623.92 496.587 263.214 
614.87 484.712 230.914 
614.501 493.476 189.59 
618.902 491.66 159.747 
627.712 496.98 82.782 
629.99 489.008 15.4417 
632.398 561.435 538.272 
621.644 551.503 606.817 
622.427 556.913 633.298 
619.445 563.567 408.569 
630.685 561.963 365.378 
627.565 561.04 302.06 
622.032 562.496 266.769 
620.957 551.143 232.627 
616.982 559.814 195.584 
627.604 560.393 48.232 
638.844 640.385 464.521 
628.682 648.459 567.944 
626.378 651.072 630.917 
641.803 652.226 666.203 
632.644 641.934 696.26 
631.375 652.321 721.992 
641.634 640.216 398.752 
640.355 640.516 240.395 
641.223 644.647 169.15 
627.01 643.026 10.1088 
621.436 722.66 47.2998 
618.995 711.698 109.643 
629.373 719.555 172.447 
614.871 714.163 234.531 
615.738 725.49 311.155 
628.194 720.632 337.269 
616.425 724.973 363.649 
629.224 725.369 409.848 
620.922 716.386 562.12 
626.668 717.613 610.321 
618.357 719.977 641.857 
619.55 726.242 11.4666 
675.797 34.8831 431.607 
690.225 37.0132 578.2 
687.172 45.1822 609.456 
681.904 41.4572 655.83 
690.973 50.8104 351.21 
677.047 51.5782 314.538 
685.366 38.917 242.803 
690.325 34.1186 194.452 
687.85 38.4246 157.441 
689.618 34.7855 120.497 
674.769 36.1561 76.6162 
680.013 102.17 326.47 
684.682 107.269 366.031 
668.171 107.938 409.56 
669.346 99.9903 460.654 
675.917 110.32 508.367 
672.819 101.654 531.253 
669.853 113.479 599.52 
678.163 105.795 619.959 
671.923 111.806 684.683 
678.36 113.657 730.253 
684.837 109.903 287.699 
685.394 99.9362 255.842 
680.176 99.0346 171.754 
671.012 103.722 137.5 
678.942 106.632 102.21 
675.488 113.663 69.8793 
680.062 184.904 216.982 
687.533 198.713 290.388 
686.799 187.858 334.636 
684.085 191.553 564.993 
675.476 187.549 592.359 
683.441 194.444 643.963 
676.438 196.827 714.927 
673.42 187.837 181.78 
681.03 190.245 144.268 
684.756 202.169 105.316 
684.914 187.888 35.778 
683.464 262.908 309.63 
680.524 260.908 339.346 
683.784 255.214 369.277 
678.369 253.772 399.672 
680.665 253.562 457.507 
683.852 249.848 492.728 
675.725 259.818 559.145 
668.272 263.208 587.825 
667.378 259.471 178.772 
674.343 254.435 80.0939 
674.818 252.173 35.9362 
670.642 332.026 458.995 
677.137 335.952 527.197 
674.927 326.802 575.896 
677.065 339.128 597.462 
674.591 328.738 719.363 
687.423 335.502 388.33 
681.295 331.215 350.668 
672.801 335.934 285.026 
674.264 336.563 222.274 
684.452 339.41 155.966 
674.364 335.138 73.6768 
684.628 337.879 48.0941 
672.606 419.283 276.753 
675.775 405.268 312.811 
659.689 407.811 380.323 
674.255 406.187 415.362 
658.617 412.73 472.105 
661.428 417.465 493.328 
661.972 414.188 624.8 
669.37 406.303 667.051 
659.279 411.336 693.028 
666.259 407.671 245.261 
673.376 403.305 207.897 
674.939 417.003 132.787 
659.172 419.9 87.3088 
668.642 406.25 19.4483 
662.318 500.301 155.305 
667.786 496.186 199.34 
678.739 500.429 237.18 
678.499 500.892 289.397 
663.369 499.471 348.184 
675.521 492.141 449.828 
665.813 491.979 521.842 
672.951 497.704 585.831 
672.559 503.915 672.744 
666.227 505.411 708.597 
667.909 489.549 53.5054 
678.274 489.373 32.7851 
676.055 575.135 401.01 
682.399 560.947 518.342 
680.874 562.825 558.224 
673.601 574.363 583.69 
675.283 575.918 623.834 
670.141 573.964 247.815 
674.021 558.842 206.784 
672.848 568.51 78.6621 
680.764 644.233 501.121 
673.595 649.533 544.023 
665.669 643.141 618.879 
678.56 642.568 708.907 
674.529 640.491 342.358 
682.25 643.256 305.304 
681.567 655.044 277.602 
667.796 651.031 206.137 
665.945 642.633 77.5859 
671.68 655.249 37.7108 
675.18 645.015 2.10096 
674.843 718.528 332.3 
686.946 711.704 402.304 
682.724 702.607 443.184 
680.962 719.417 500.132 
680.476 703.11 625.233 
677.459 710.092 655.166 
676.77 719.164 695.209 
676.289 719.763 732.665 
671.559 705.138 223.419 
680.218 707.749 144.411 
682.856 713.404 71.7461 
673.141 715.333 40.1988 
684.513 711.755 10.7521 
724.131 36.0786 444.856 
718.13 34.648 518.682 
725.556 37.6216 551.114 
717.576 44.5001 581.661 
721.313 36.3865 627.314 
722.291 40.128 413.97 
729.138 34.2964 385.182 
717.597 35.2741 341.093 
720.246 35.1499 303.035 
730.546 29.7324 241.19 
732.654 28.1807 203.505 
729.834 31.1354 157.278 
722.494 39.819 26.2642 
705.277 103.895 269.81 
717.358 106.116 351.892 
710.055 110.435 382.599 
705.738 107.303 466.969 
715.143 116.152 503.605 
711.905 113.491 540.252 
714.601 117.29 570.736 
721.518 109.376 640.807 
712.168 111.521 676.403 
705.391 105.817 238.813 
714.921 106.116 132.07 
715.719 103.931 32.4652 
728.139 174.69 119.3 
723.391 185.255 160.451 
729.359 180.454 193.998 
0.288486 182.544 230.64 
729.311 190.671 263.441 
725.469 183.929 322.089 
717.19 177.413 356.925 
717.02 182.947 428.853 
725.593 175.862 476.397 
722.804 190.901 515.954 
724.426 178.722 584.372 
0.0158386 189.593 657.055 
711.494 263.401 244.609 
707.635 263.738 283.292 
717.439 266.821 347.322 
703.334 261.128 410.266 
716.557 264.765 466.04 
701.851 278.208 507.826 
705.898 261.291 579.66 
717.941 271.944 614.449 
716.026 263.126 682.129 
704.454 265.821 706.103 
718.144 265.383 172.357 
705.107 273.646 133.1 
707.936 276.458 94.9741 
707.375 337.051 76.2785 
708.962 324.504 123.664 
709.985 327.133 197.091 
706.57 338.86 234.603 
711.698 327.546 346.235 
706.919 326.705 378.122 
706.668 328.892 409.431 
719.71 331.924 432.17 
714.487 329.249 457.158 
709.022 331.051 592.564 
718.78 324.193 632.813 
705.942 323.188 672.242 
704.797 322.155 718.425 
715.723 427.314 511.416 
711.586 415.817 543.201 
718.076 427.164 580.551 
715.123 417.197 610.426 
716.491 414.997 651.449 
712.052 411.762 447.914 
711.141 419.512 416.31 
719.592 419.168 385.274 
709.202 424.871 346.528 
718.692 425.179 322.264 
719.789 411.639 286.765 
712.411 412.841 218.86 
702.832 415.041 184.242 
715.662 419.411 149.59 
718.627 413.516 52.5231 
711.252 497.486 360.264 
711.832 488.402 423.734 
720.94 502.856 532.669 
724.974 493.108 595.933 
719.585 499.213 640.538 
709.704 495.309 186.344 
711.795 500.788 155.528 
714.261 495.567 12.4755 
710.271 568.335 15.7658 
707.057 572.463 56.1522 
703.983 575.479 91.4355 
716.196 578.7 126.271 
707.159 569.982 157.476 
717.223 566.679 183.38 
708.231 580.732 224.255 
709.385 575.088 257.376 
701.549 574.752 295.898 
710.385 575.64 360.514 
714.132 572.112 399.63 
713.44 565.253 471.937 
707.648 573.872 511.945 
716.374 567.257 548.247 
700.571 579.662 623.298 
701.492 574.204 675.665 
715.34 649.612 208.483 
724.946 648.061 235.148 
724.613 638.68 265.129 
716.755 642.984 296.625 
710.359 643.274 324.979 
725.378 640.275 349.94 
720.125 645.674 509.421 
725.727 651.116 653.182 
712.253 651.995 171.149 
716.819 648.812 132.675 
715.184 640.553 87.7435 
712.084 650.667 12.508 
718.826 719.206 42.7549 
716.561 715.57 81.4024 
715.788 721.868 111.176 
714.091 720.192 200.46 
725.494 710.842 255.308 
716.725 720.424 329.727 
721.925 710.926 401.85 
716.407 717.114 433.295 
718.066 711.846 499.853 
725.574 726.481 606.862 
726.152 715.842 690.088 
357.079 20.1874 456.948 
281.281 697.093 140.699 
513.558 64.7373 344.951 
124 709.77 280.122 
603.514 677.668 176.682 
501.98 284.503 388.156 
460.74 194.195 568.13 
484.122 590.734 396.693 
188.53 214.313 416.881 
645.478 495.594 380.474 
52.6775 275.651 445.211 
397.628 399.652 421.481 
677.75 634.517 320.441 
679.541 504.531 264.609 
122.723 273.011 549.112 
510.879 0.25141 9.80675 
345.509 670.723 377.94 
279.811 421.345 235.173 
676.505 609.875 449.487 
359.886 521.853 211.581 
452.07 238.659 153.384 
140.051 182.909 54.4007 
460.492 128.95 558.932 
725.102 251.674 98.4434 
540.714 29.0526 98.6948 
194.96 654.373 457.262 
430.134 597.378 333.637 
146.12 223.763 121.99 
357.701 230.622 696.521 
111.433 682.692 201.68 
264.816 89.2432 384.589 
144.649 541.337 31.7133 
243.093 348.551 60.7659 
341.787 165.571 435.328 
377.705 360.531 356.201 
435.104 203.285 443.842 
557.095 560.986 674.465 
520.116 672.419 623.657 
721.796 203.735 712.9 
372.885 522.952 529.136 
152.925 667.601 336.973 
184.638 177.194 685.523 
245.404 518.981 117.594 
680.732 163.186 478.125 
303.433 264.653 535.29 
523.511 699.758 5.0746 
233.853 523.352 566.06 
174.818 309.968 504.979 
64.9748 298.264 708.714 
44.3751 671.149 498.166 
573.511 90.5734 432.267 
176.983 275.211 609.461 
129.006 520.616 394.942 
246.601 467.847 558.129 
724.726 37.7798 89.2821 
526.515 561.291 55.5398 
531.59 61.6442 578.892 
364.15 236.462 155.36 
110.843 345.812 391.272 
609.009 185.823 481.845 
307.776 362.806 23.5568 
183.737 491.812 544.172 
578.68 4.91276 278.52 
548.13 320.744 205.735 
393.522 684.894 442.197 
548.882 87.0238 10.1336 
269.005 197.867 355.946 
660.277 73.3758 541.768 
408.622 381.152 171.074 
432.179 564.889 662.886 
242.851 410.069 667.799 
521.371 79.8769 663.938 
104.17 572.467 453.092 
248.261 387.097 40.3357 
453.995 47.1196 725.23 
162.692 596.002 78.754 
528.771 58.284 349.997 
337.039 466.906 731.149 
508.113 165.586 562.538 
437.5 408.437 239.106 
371.799 196.308 318.983 
302.237 300.478 157.95 
21.8284 548.739 545.048 
62.1642 269.234 592.167 
53.8944 431.926 454.669 
409.269 400.022 644.46 
25.7657 3.5613 377.866 
23.4142 511.675 543.452 
585.952 215.675 218.389 
91.5579 587.474 414.697 
410.541 156.21 715.176 
568.491 178.039 530.415 
380.039 240.203 66.1489 
238.707 294.097 498.075 
693.376 426.746 369.326 
546.052 102.515 35.8483 
457.011 128.28 39.4096 
101.378 151.695 551.084 
644.829 4.14638 33.2588 
129.718 95.7043 620.732 
544.415 506.245 43.4426 
526.091 341.237 221.481 
323.006 721.276 461.684 
153.73 186.358 449.027 
523.056 732.41 551.542 
598.314 557.299 98.0168 
415.898 468.628 102.163 
449.157 598.346 197.867 
336.389 409.262 704.113 
601.313 524.859 299.625 
329.497 180.514 526.108 
351.779 334.243 712.466 
67.306 123.799 711.376 
618.848 682.703 433.797 
565.17 547.516 257.595 
663.187 229.914 726.223 
31.8499 679.071 591.07 
229.717 281.96 266.832 
512.179 529.605 260.044 
78.3046 125.602 440.557 
604.412 477.381 41.3003 
583.378 544.687 165.099 
561.254 430.035 114.302 
261.55 261.705 661.818 
519.146 191.391 158.233 
369.439 452.959 385.764 
636.271 653.289 314.055 
371.456 431.968 110.16 
631.5 510.273 235.762 
379.857 231.063 524.33 
544.956 58.8169 220.864 
659.258 320.367 482.569 
12.3094 617.882 163.701 
501.877 156.593 536.448 
82.4325 528.049 234.916 
192.593 426.049 11.6892 
407.997 410.963 623.937 
198.827 222.419 682.754 
419.691 148.177 269.622 
168.76 2.25389 375.635 
109.22 14.5633 260.017 
272.921 130.677 513.839 
156.081 632.554 670.432 
692.529 714.986 464.981 
193.945 174.079 157.529 
598.509 276.931 599.598 
488.946 475.758 88.5166 
438.2 161.949 236.694 
609.974 712.85 384.188 
390.313 135.431 283.241 
327.244 94.4595 264.727 
58.7252 288.405 438.806 
216.255 494.039 307.739 
404.889 359.048 584.669 
270.987 114.494 326.927 
359.504 552.695 488.876 
596.197 527.016 86.0848 
101.645 143.473 526.014 
355.156 19.9468 505.363 
5.84363 410.26 640.794 
289.085 4.00405 1.75353 
553.812 62.7292 290.158 
259.118 278.984 50.6978 
566.857 683.873 409.746 
418.026 221.36 524.24 
500.329 443.561 136.951 
586.414 545.206 280.424 
378.928 166.862 300.371 
150.791 172.706 710.631 
59.8386 282.102 43.864 
349.997 541.22 322.848 
400.695 374.577 273.221 
76.9409 59.103 494.581 
601.181 70.5563 341.944 
211.116 570.886 52.0053 
348.067 423.8 597.211 
628.491 69.2272 30.5731 
195.363 220.018 203.279 
172.493 278.103 665.069 
153.628 337.942 213.671 
197.492 687.939 21.3915 
520.34 355.134 395.968 
554.642 299.756 525.628 
163.086 510.872 363.013 
215.091 125.439 53.3127 
78.8025 20.4302 122.54 
312.654 388.286 620.662 
244.223 541.914 225.104 
457.895 5.90594 179.543 
479.286 526.246 534.677 
141.755 586.306 233.252 
596.826 407.448 533.008 
18.4668 52.1252 435.818 
71.7795 130.928 456.248 
194.319 240.303 672.041 
536.878 552.958 326.827 
424.04 63.6811 135.241 
649.143 521.576 141.147 
95.1862 267.362 667.393 
629.863 409.117 520.199 
129.615 272.443 194.147 
239.502 679.863 83.306 
675.32 18.1428 214.234 
398.069 212.462 454.537 
336.61 15.8401 273.995 
663.437 439.88 337.676 
65.1784 355.523 125.752 
206.325 450.709 393.114 
140.218 347.072 68.7309 
660.417 476.687 341.174 
121.064 405.81 269.07 
152.245 645.312 215.434 
235.551 587.133 233.577 
170.822 588.312 461.879 
444.817 518.249 168.259 
48.9923 583.428 523.782 
174.744 56.253 240.991 
567.858 196.471 588.063 
636.589 123.389 331.25 
244.263 244.453 3.56029 
513.333 396.698 648.872 
728.767 632.249 502.505 
228.843 348.534 20.7066 
674.882 519.356 609.018 
403.261 230.672 393.768 
571.52 279.664 243.695 
361.801 454.408 299.948 
602.792 288.766 496.419 
457.355 191.855 619.808 
55.1054 436.118 130.761 
58.6657 215.951 527.458 
707.538 211.217 426.207 
476.543 440.061 41.2412 
497.25 381.443 560.597 
33.0358 622.724 337.433 
576.679 120.317 347.108 
339.598 577.672 538.963 
356.667 691.443 457.532 
150.625 665.481 668.749 
618.074 172.274 23.2528 
445.171 545.042 74.4567 
106.873 121.309 214.705 
165.215 697.988 335.022 
512.323 304.086 179.194 
317.786 529.993 78.4718 
559.367 153.159 36.4149 
283.399 303.785 701.896 
593.958 31.6911 549.195 
617.211 476.862 360.737 
691.667 246.301 205.315 
655.348 353.174 326.625 
136.553 518.389 291.113 
650.77 614.998 391.692 
729.242 440.865 544.851 
0.552599 209.412 262.253 
377.473 69.8701 293.944 
193.168 687.081 37.3058 
553.905 645.248 283.607 
352.345 703.649 421.671 
643.458 441.725 718.883 
505.157 358.995 600.381 
163.348 354.736 307.746 
708.199 386.892 298.51 
352.088 31.4183 577.793 
646.032 224.586 531.374 
683.338 44.9914 443.122 
233.445 70.712 276.718 
136.726 423.057 246.868 
558.397 333.015 688.592 
543.78 104.672 314.087 
410.661 268.02 668.823 
718.407 242.719 322.215 
57.8402 684.642 7.57873 
635.633 597.174 232.165 
433.506 547.012 277.156 
143.128 46.9572 347.868 
419.847 183.684 37.4255 
666.714 8.58082 370.44 
621.807 552.361 475.112 
202.393 229.522 9.63195 
137.716 214.429 252.351 
459.932 497.847 584.906 
443.671 457.82 399.723 
675.836 157.826 213.235 
219.492 300.955 260.192 
567.361 720.802 443.876 
604.786 654.016 452.457 
241.726 542.322 271.317 
716.838 11.2159 500.839 
245.322 608.864 479.615 
96.7274 311.456 301.802 
632.776 21.6273 26.1222 
512.234 183.455 484.903 
38.9258 17.3161 472.205 
482.802 622.102 392.721 
201.758 130.328 201.543 
473.076 113.667 212.759 
240.415 106.637 361.691 
222.184 351.959 237.055 
701.799 448.686 548.512 
270.101 347.962 570.139 
296.223 646.96 534.102 
480.172 425.694 717.558 
231.575 464.62 1.37391 
703.78 213.921 623.476 
363.001 415.68 20.3044 
564.544 155.256 133.971 
43.8033 395.671 240.608 
405.495 617.854 592.566 
642.55 586.153 307.752 
457.562 122.754 655.714 
94.8035 165.649 261.368 
78.8613 397.225 725.988 
80.2352 367.505 206.409 
703.711 730.506 622.089 
724.016 561.55 43.8449 
124.487 605.353 439.516 
365.095 277.348 323.87 
224.161 186.398 176.523 
531.913 643.96 299.277 
454.128 204.661 718.255 
543.658 458.561 181.634 
638.657 419.288 6.68922 
682.502 543.775 612.042 
712.388 399.53 342.288 
155.411 197.944 252.749 
454.688 652.071 457.41 
439.443 208.373 23.3745 
589.848 26.0439 401.701 
403.977 569.702 126.762 
585.61 586.27 555.534 
649.481 95.4473 226.966 
71.8716 74.3349 626.497 
414.16 229.746 90.9404 
666.909 684.434 9.51188 
414.193 246.725 243.929 
82.3935 650.702 80.1316 
209.155 502.812 666.402 
31.1895 533.562 424.329 
272.512 571 131.259 
444.071 239.513 530.787 
535.012 172.922 481.721 
544.524 563.74 138.598 
28.9092 244.433 385.324 
272.838 326.827 302.525 
352.97 535.982 71.8375 
285.872 567.171 605.399 
710.201 106.183 442.899 
107.96 430.292 196.381 
334.666 247.867 21.7338 
635.707 691.938 261.247 
432.994 493.45 434.169 
319.813 333.383 508.842 
274.163 225.692 638.151 
346 511.563 471.822 
660.798 596.224 274.797 
123.679 197.39 522.664 
145.413 99.5975 481.102 
406.66 532.591 241.052 
107.329 713.806 545.526 
371.738 300.12 145.41 
249.249 545.92 243.823 
153.9 158.42 21.8859 
625.722 376.319 510.15 
470.228 303.617 372.875 
11.5252 427.296 570.265 
534.189 572.709 669.862 
281.792 245.869 468.954 
522.844 353.197 449.26 
334.871 724.935 15.8801 
480.28 138.515 287.637 
498.411 387.763 100.057 
8.73374 541.663 258.476 
30.6196 433.885 634.795 
540.77 170.613 204.911 
180.144 182.138 632.207 
16.9095 716.327 471.416 
686.772 264.619 717.285 
422.226 53.9631 336.982 
137.986 388.834 328.417 
153.866 135.614 466.931 
441.503 634.025 121.195 
541.56 642.759 662.857 
66.536 673.378 363.243 
701.331 480.648 533.855 
172.742 660.793 715.993 
71.4495 677.702 698.821 
542.866 630.974 229.939 
526.651 319.7 283.903 
130.133 457.686 672.736 
458.549 611.552 74.8503 
191.981 319.556 708.875 
313.175 127.616 618.134 
242.533 194.152 558.013 
605.775 161.982 305.161 
406.131 334.724 232.454 
388.624 406.174 176.656 
583.884 8.68992 393.83 
134.287 138.823 118.016 
73.5229 597.372 729.569 
123.749 369.028 443.24 
8.38275 611.561 637.392 
566.395 483.836 65.874 
138.056 156.467 400.598 
370.51 545.091 73.272 
547.166 165.535 288.811 
621.296 15.919 297.501 
281.626 150.205 436.324 
399.642 223.728 300.196 
711.335 495.85 725.076 
421.075 504.233 603.137 
324.967 337.128 353.473 
390.841 475.185 509.94 
57.9394 112.194 321.531 
131.211 659.36 487.066 
717.524 95.2817 653.19 
420.348 494.924 143.418 
343.092 134.97 277.87 
334.668 556.045 48.6032 
204.306 147.512 385.732 
557.779 538.353 127.416 
334.219 596.293 239.61 
655.749 727.504 165.471 
409.315 414.027 712.627 
98.4894 84.8989 569.332 
241.908 71.9426 726.467 
23.928 415.035 127.936 
301.798 16.2031 683.981 
369.66 301.256 493.144 
535.13 710.571 173.671 
588.665 254.359 656.621 
424.497 496.267 728.563 
417.464 520.195 410.098 
545.4 88.4935 426.301 
495.881 438.895 646.81 
593.875 441.528 691.597 
496.721 571.577 337.104 
262.361 207.737 638.359 
22.0049 9.36668 615.43 
195.676 523.623 37.7999 
33.8977 378.789 292.159 
690.519 69.7857 54.9266 
685.582 487.249 575.122 
362.18 299.149 663.615 
54.9813 61.5304 369.01 
701.791 655.405 77.0384 
659.889 418.626 648.615 
263.492 680.987 122.852 
168.352 702.992 132.219 
88.0818 199.066 301.131 
380.241 156.084 370.916 
435.168 108.166 124.666 
276.79 470.347 423.815 
206.905 525.328 485.345 
575.915 493.619 407.25 
568.069 683.5 39.8639 
690.921 118.352 9.3562 
89.6395 168.634 174.524 
11.9815 256.716 373.59 
684.028 338.624 637.841 
75.194 615.414 374.687 
499.009 88.8191 166.515 
250.854 664.735 660.134 
658.104 584.188 346.642 
16.9808 418.757 296.642 
56.8447 376.178 414.994 
240.725 477.8 106.843 
614.315 57.4116 10.3 
410.49 7.93997 348.924 
314.831 83.134 230.839 
689.518 582.143 319.658 
122.533 99.497 250.892 
49.1672 24.1013 101.58 
395.809 41.0821 520.338 
373.944 164.128 628.834 
330.915 285.668 430.545 
341.215 696.158 438.485 
690.14 277.488 521.619 
187.478 233.506 370.262 
507.136 356.039 469.759 
24.5279 405.207 493.86 
75.9624 400.411 63.4971 
704.797 624.483 468.35 
344.43 221.898 20.5182 
41.4757 563.113 716.676 
479.961 519.753 260.665 
268.08 707.231 494.171 
638.342 480.866 116.71 
374.602 505.394 521.917 
134.962 631.503 589.432 
569.274 620.411 282.809 
632.771 591.708 173.791 
367.621 202.638 395.689 
388.139 244.114 225.302 
631.98 258.655 718.785 
392.651 163.497 466.152 
297.778 673.061 136.049 
153.71 609.465 680.498 
36.1083 445.239 567.409 
318.917 344.51 425.616 
492.709 712.131 628.255 
380.2 4.58503 129.443 
109.692 71.5761 356.194 
430.785 559.172 616.959 
264.694 144.589 227.969 
690.31 637.298 206.6 
585.065 58.6961 573.37 
119.876 97.1514 481.02 
507.974 474.192 43.2352 
326.069 583.884 114.811 
682.264 198.123 484.165 
244.519 681.91 273.729 
299.699 643.889 243.99 
527.668 600.699 147.788 
0.768364 452.264 206.484 
574.139 442.697 645.381 
166.114 337.047 483.224 
209.349 663.116 333.608 
324.16 611.879 531.731 
74.8252 122.898 480.141 
348.554 539.137 125.836 
447.955 105.336 36.2243 
691.945 633.004 636.923 
106.233 633.772 355.687 
312.717 474.411 64.8833 
224.598 159.505 627.456 
233.63 325.618 231.002 
716.854 534.967 160.618 
316.962 125.627 38.9978 
115.192 200.453 161.896 
595.333 549.007 701.033 
721.168 263.461 72.8691 
23.8928 221.906 705.873 
660.816 328.139 606.145 
283.003 640.856 347.056 
347.886 131.954 506.561 
241.842 365.584 98.6791 
472.844 348.938 633.646 
633.462 665.9 25.7739 
672.46 47.592 226.227 
100.856 642.925 41.7331 
68.3892 630.593 305.194 
141.258 654.486 527.101 
113.631 581.802 121.74 
719.777 131.305 29.096 
333.333 479.19 161.05 
106.393 721.032 526.635 
205.072 460.376 142.073 
105.219 360.338 74.4723 
357.219 400.154 31.4891 
398.952 468.544 662.082 
704.147 609.802 583.069 
497.747 723.433 431.371 
648.583 309.542 308.365 
76.1333 415.936 295.897 
602.768 621.008 22.7735 
85.8126 123.72 682.41 
207.877 480.939 349.065 
239.366 146.392 84.1083 
167.948 117.038 693.91 
17.5169 614.786 683.843 
586.428 491.989 652.031 
148.825 361.257 539.539 
554.711 458.41 655.986 
503.621 666.287 403.425 
119.185 172.153 549.817 
203.294 340.101 666.855 
163.704 357.618 548.141 
114.047 73.0054 315.414 
40.6005 351.068 731.27 
195.227 352.821 117.516 
1.26607 524.42 490.113 
456.018 115.751 147.81 
125.943 234.937 319.963 
675.76 438.23 660.064 
423.756 715.982 357.187 
5.66986 23.0822 708.255 
3.43973 299.778 178.751 
610.715 496.271 322.492 
582.352 18.8215 50.373 
730.162 144.765 285.31 
316.625 87.0246 723.54 
243.189 696.14 591.974 
527.371 386.395 574.456 
151.058 392.065 597.538 
304.564 155.204 658.821 
425.127 399.747 717.895 
410.122 245.261 147.982 
695.432 561.885 235.006 
685.472 71.574 197.646 
543.946 598.945 584.041 
384.902 16.5023 242.607 
248.94 142.315 638.112 
412.756 446.879 59.8154 
338.078 549.515 92.2342 
26.1698 241.142 491.981 
10.5652 600.891 7.08016 
161.764 239.445 80.7262 
396.77 191.416 152.3 
594.416 1.86241 17.7447 
444.957 386.764 34.247 
687.563 635.705 176.562 
592.175 314.961 623.441 
651.99 653.039 439.456 
502.706 689.774 547.989 
509.786 703.556 92.0025 
28.6267 131.819 331.447 
109.353 528.589 522.864 
261.653 389.505 524.726 
279.398 100.961 177.991 
313.645 55.0246 80.1952 
86.105 576.414 260.403 
33.2033 345.62 216.677 
581.193 121.906 186.732 
673.195 150.532 318.552 
271.143 259.885 113.641 
60.5064 521.539 503.145 
585.233 67.4365 604.107 
29.7233 381.081 659.131 
109.919 137.789 572.831 
505.075 517.937 405.02 
346.673 637.246 593.554 
563.349 484.938 715.46 
448.774 22.7827 180.416 
218.419 608.015 247.853 
89.0255 637.739 628.934 
14.6568 14.1573 33.2227 
587.487 519.232 551.16 
259.008 605.501 421.703 
506.942 218.674 325.448 
348.956 65.1046 501.521 
481.448 400.238 463.797 
140.326 115.511 486.58 
568.595 422.955 265.334 
464.029 437.612 279.491 
497.252 291.6 65.2229 
314.912 550.607 670.724 
3.11444 324.049 155.898 
328.563 691.045 204.422 
405.45 306.501 269.526 
637.267 194.775 51.7747 
283.276 81.1411 512.772 
627.989 159.804 621.479 
721.112 491.482 169.574 
192.033 163.432 476.075 
397.823 240.67 725.3 
449.598 631.016 507.318 
176.963 198.734 205.571 
689.735 28.0002 50.4641 
127.114 475.315 131.169 
296.688 667.349 294.601 
39.2635 395.408 631.503 
569.788 59.7316 138.673 
561.589 509.33 36.189 
335.407 611.132 685.147 
459.837 54.595 150.381 
665.409 10.8299 178.381 
192.642 686.522 588.574 
696.998 376.825 264.238 
258.099 416.088 659.646 
611.373 56.4917 476.201 
712.244 249.133 429.223 
567.318 81.4621 509.36 
164.207 44.9602 152.684 
428.445 303.059 568.772 
354.591 459.161 87.6486 
340.469 20.4358 168.114 
102.176 351.399 583.987 
168.95 333.502 66.8151 
607.214 211.375 123.307 
349.915 190.119 372.44 
45.6379 23.9376 453.902 
554.997 188.145 498.862 
707.681 616.59 68.4216 
542.954 237.681 527.583 
630.602 578.15 548.019 
65.2161 680.326 165.918 
649.203 421.841 66.4282 
708.714 464.505 611.306 
98.521 80.9197 67.9251 
470.961 126.558 91.8627 
690.225 655.736 163.098 
25.1469 465.19 400.779 
552.73 362.292 245.429 
599.595 251.61 471.386 
266.025 226.824 202.391 
143.83 325.345 283.311 
211.755 62.8063 409.868 
303.618 254.169 357.923 
583.626 210.895 280.16 
13.2234 236.042 11.8499 
414.002 55.2715 374.142 
118.185 222.186 411.361 
732.28 88.2808 662.971 
470.166 354.306 156.296 
672.558 498.136 481.641 
222.368 709.891 544.447 
632.237 280.01 65.1167 
256.66 130.135 276.012 
536.82 143.359 512.053 
548.67 557.361 567.325 
668.824 600.256 566.812 
598.295 336.923 187.617 
21.0907 275.98 685.753 
378.796 653.746 338.79 
654.807 457.066 482.148 
433.36 272.236 306.009 
267.185 461.549 55.8006 
523.53 719.011 657.277 
268.561 654.335 524.033 
101.872 519.13 127.456 
289.489 540.221 403.436 
170.387 623.131 565.37 
379.041 268.427 485.616 
717.831 189.734 209.182 
466.479 623.094 481.418 
94.7889 680.309 194.978 
18.5657 215.369 115.812 
542.599 317.242 634.942 
339.991 114.973 17.6151 
508.275 285.36 640.746 
340.145 664.401 175.673 
92.2609 648.732 365.407 
301.443 381.711 255.001 
49.3607 420.699 411.78 
258.827 515.488 358.589 
453.805 534.054 573.959 
569.617 343.153 157.7 
471.06 279.707 30.931 
179.222 619.698 145.904 
196.837 394.473 431.264 
645.163 394.821 659.108 
166.664 444.182 346.307 
578.444 703.009 128.295 
203.533 423.314 662.349 
43.9917 259.431 272.001 
201.692 730.491 551.708 
232.623 176.213 437.906 
378.527 373.051 98.8788 
76.2911 477.135 99.9967 
438.456 23.391 193.376 
715.853 668.554 588.197 
641.461 101.718 298.879 
382.562 150.195 691.703 
311.411 194.187 217.634 
106.026 273.529 30.3895 
204.905 349.82 507.524 
304.902 54.7761 530.915 
651.854 199.358 514.349 
186.742 581.92 664.545 
144.945 159.831 125.232 
362.579 9.74353 521.11 
234.543 517.39 689.641 
38.9564 293.698 360.737 
569.871 58.4752 397.866 
302.341 411.45 342.956 
136.528 329.803 542.314 
650.877 516.546 390.735 
581.922 661.491 550.566 
707.154 290.57 560.309 
494.764 134.274 238.173 
133.517 633.749 10.8596 
439.478 672.706 304.557 
464.581 77.918 40.9822 
74.0373 214.446 370.786 
90.6518 687.4 372.392 
650.961 448.664 506.666 
155.635 626.04 141.983 
177.698 26.0578 42.2324 
188.558 465.536 714.938 
493.115 532.251 490.516 
122.648 263.332 568.434 
163.63 337.369 49.3795 
534.416 220.22 181.203 
688.247 493.806 161.449 
36.5687 584.458 115.348 
408.96 501.919 564.012 
324.109 101.752 482.61 
366.342 290.31 214.646 
347.78 49.9255 13.3968 
104.795 172.573 276.728 
673.229 336.203 614.097 
170.312 91.8654 594.624 
331.76 128.434 445.582 
447.108 537.395 214.001 
277.621 719.521 138.055 
697.93 290.752 580.043 
711.327 395.547 19.116 
254.555 335.276 355.319 
135.152 324.385 492.438 
235.97 494.696 584.303 
542.675 540.065 516.632 
23.176 84.1857 502.653 
161.231 84.859 79.2828 
401.038 568.143 22.2546 
197.655 532.573 313.006 
44.1982 510.399 708.554 
63.3143 31.4545 310.33 
418.633 166.607 634.715 
177.571 402.576 395.911 
7.61156 308.845 295.433 
524.243 332.021 379.618 
394.934 358.445 98.1926 
707.94 402.643 608.592 
682.993 465.958 640.046 
259.823 151.091 73.1532 
312.317 364.648 550.744 
607.749 155.391 149.265 
253.868 448.787 642.517 
718.345 87.9663 69.8062 
257.249 406.833 563.352 
712.679 651.143 666.642 
38.3222 104.209 453.181 
